# .PCD v0.7 - Point Cloud Data file format
VERSION 0.7
FIELDS x y z
SIZE 4 4 4
TYPE F F F
COUNT 1 1 1
WIDTH 1282
HEIGHT 1
VIEWPOINT 0 0 0 1 0 0 0
POINTS 1282
DATA ascii
1.948789597 -1.528590679 1.012153625
1.955166698 -1.528420448 1.0184834
1.968556523 -1.513582826 1.017149687
1.867212653 -1.491295099 1.010141134
1.981595516 -1.497432947 1.017888308
1.907619834 -1.47989881 1.016746044
1.916733503 -1.462930322 1.015665054
1.925847054 -1.445961714 1.014583945
2.012545347 -1.197452426 1.011942744
1.949473023 -1.166192651 1.012673974
1.917564154 -1.155382872 1.018182755
1.908690214 -1.13100481 1.010499239
1.966937184 -1.133676291 1.010602474
2.021265507 -1.139059544 1.011953115
2.048716545 -1.134186625 1.01795733
1.914229274 -1.129310012 1.018123865
1.925005794 -1.121487617 1.016215801
1.928726554 -1.10454011 1.015232205
2.05742979 -1.097561002 1.013729334
1.932447433 -1.087592602 1.01424861
1.94225359 -1.080148697 1.010915875
2.029796124 -1.082307816 1.011989117
1.936168194 -1.070645094 1.013265133
1.962154865 -1.067111373 1.011132956
1.939888954 -1.053697467 1.012281656
1.95444572 -1.05445087 1.014997244
1.970764637 -1.051081061 1.010111809
2.012865067 -1.05186522 1.014345646
1.993417978 -1.042302728 1.016254425
1.954570055 -1.038280845 1.013929605
1.999418259 -1.031309128 1.019024849
2.041899204 -1.035803556 1.014593363
1.915333509 -1.021909952 1.015093327
2.009876251 -1.010533571 1.016021013
2.011351347 -1.01808548 1.017836213
1.927129149 -1.008562207 1.016026139
1.980189681 -0.9936067462 1.017942905
1.879527569 -0.9817764759 1.017298698
1.922680497 -0.9884457588 1.013151169
2.008839846 -0.9842069745 1.018581867
1.898029566 -0.9575656652 1.015583396
2.017732143 -0.9574819803 1.015754223
1.901655793 -0.9410489798 1.014624834
2.016545296 -0.9430913329 1.010184646
2.082950354 -0.9387447238 1.010704637
1.91216588 -0.9219058752 1.019948244
1.983438373 -0.9144685268 1.017197609
2.014271736 -0.9181886911 1.01712203
1.912534356 -0.8914991617 1.011749268
1.991871715 -0.8987665176 1.016197324
1.916160583 -0.8749824762 1.010790825
1.952095389 -0.8755129576 1.018990874
2.009439707 -0.8625269532 1.010596514
1.952219605 -0.8593428731 1.017923236
2.007452488 -0.842479825 1.019675255
1.924807429 -0.8318114877 1.019971013
1.939136982 -0.8305773735 1.014273405
1.940411448 -0.8380194306 1.01064074
2.019317627 -0.8308948874 1.018607855
1.942785978 -0.8139566779 1.013308764
1.914107203 -0.8017824888 1.016498804
1.966195345 -0.8089023829 1.019278526
1.890804529 -0.7741660476 1.019255996
2.067438126 -0.7632122636 1.013032913
1.930202961 -0.7545566559 1.014965057
1.978758097 -0.7592781186 1.016669989
2.017636299 -0.7599434257 1.012649536
2.037693977 -0.7554655075 1.010070324
2.079023123 -0.7503011823 1.011972666
1.867491961 -0.7470991611 1.01568687
1.90287137 -0.7436432838 1.010681272
1.875291944 -0.7325766683 1.014761686
1.95764792 -0.7310048342 1.012410402
2.007246494 -0.7324701548 1.014409304
1.909348845 -0.7293784022 1.010181069
2.034069538 -0.7207356691 1.011375666
2.063153744 -0.7272108793 1.015347958
2.015456676 -0.7171837091 1.013435364
2.084516048 -0.7150458097 1.019389391
1.948826432 -0.7080716491 1.017664433
2.023666859 -0.7018972635 1.012461543
2.04617238 -0.706223011 1.014063597
1.825156093 -0.6959537268 1.01020205
1.937828541 -0.6923175454 1.016732216
2.05781126 -0.6907092929 1.016686678
2.083059311 -0.6979733706 1.012076735
1.937952042 -0.676246345 1.015671134
2.053977489 -0.679605484 1.017614603
1.938075423 -0.6601750851 1.014610052
2.065407276 -0.6684455276 1.016586423
2.079884768 -0.6662489772 1.014488101
2.07501936 -0.6593355536 1.012881875
1.938198924 -0.6441039443 1.01354897
1.963331223 -0.6420051455 1.013830423
2.031920433 -0.6491761208 1.019716144
2.08630991 -0.6467527151 1.011848569
2.040076733 -0.6339901686 1.01874876
2.061583996 -0.6353988051 1.017823219
2.073769331 -0.6307446361 1.015509367
2.097600222 -0.6341698766 1.010815263
1.938322425 -0.6280327439 1.012487769
1.96695745 -0.6254885197 1.012871861
2.059914589 -0.6206135154 1.010447979
1.938445807 -0.6119615436 1.011426687
2.048233032 -0.6188042164 1.017781258
2.090905905 -0.6128484011 1.018734336
1.970583558 -0.6089718938 1.0119133
2.102119923 -0.6003505588 1.017707944
1.938569307 -0.5958903432 1.010365605
1.974209785 -0.5924552679 1.010954857
2.043704987 -0.5999795198 1.01053834
2.068131685 -0.5962057114 1.016666889
0.9612386227 -0.5859102607 1.010781288
1.950614572 -0.5833846927 1.015511155
2.0792377 -0.5827245712 1.01616323
2.089665413 -0.5723436475 1.014522076
2.043326616 -0.5634874105 1.018497348
2.094845533 -0.5639134645 1.018837571
1.962786555 -0.5544125438 1.019569635
2.072648764 -0.5505494475 1.01643312
2.05137825 -0.5484958887 1.017542243
2.092388153 -0.5481238365 1.01132381
2.046562433 -0.5302571058 1.010231733
2.084908009 -0.5389367342 1.016117573
2.103394032 -0.5358580351 1.010316491
1.971764803 -0.5211616755 1.016661763
1.991717219 -0.5130728483 1.013136744
2.0970788 -0.515776515 1.018161178
2.10801363 -0.5035899282 1.017160416
2.115186691 -0.5034121871 1.012196183
2.09274888 -0.4978837967 1.016706109
2.098440647 -0.4828028679 1.014293551
2.106138468 -0.4885266423 1.010055304
2.053763866 -0.4798099995 1.016972065
2.108947515 -0.4711596966 1.013247013
2.061711311 -0.4650128484 1.016029477
1.963536501 -0.4567993879 1.013124824
1.986171603 -0.4555409253 1.012853622
2.069658756 -0.4502155781 1.01508677
2.098413944 -0.4543937445 1.010942698
2.119454861 -0.4595164061 1.012200475
1.975590348 -0.4432066679 1.018198609
2.003249645 -0.4420610368 1.018786907
1.975716114 -0.4268389344 1.017117858
1.993375063 -0.4227305949 1.010949373
2.085553646 -0.4206210971 1.013201356
2.113661051 -0.4282467961 1.013441563
2.113949776 -0.4115942717 1.016796708
2.014128208 -0.392511189 1.015911341
2.117687702 -0.3862205148 1.013354182
2.017754316 -0.3759945631 1.014952898
1.989069462 -0.363718003 1.019381046
2.138212919 -0.3634759188 1.011309862
2.088673592 -0.3546468019 1.01327765
2.127426147 -0.3555042148 1.015690207
1.989196062 -0.3472438753 1.018293262
2.037721395 -0.3450675309 1.019426107
2.028632879 -0.3264446855 1.012077332
2.032258987 -0.3099280596 1.011118889
2.035885334 -0.2934114635 1.010160327
2.090116739 -0.2900552154 1.012575984
2.097866297 -0.2756265998 1.011656761
2.105615854 -0.2611979842 1.010737538
2.097858429 -0.242870748 1.019600749
2.031722069 -0.2206355482 1.01235652
2.105561256 -0.2285292149 1.018687129
2.100446701 -0.2129755616 1.011597395
2.031851053 -0.203849718 1.011248231
2.031980038 -0.1870639175 1.010139942
2.100114822 -0.1809622049 1.019296527
2.057672501 -0.1760504544 1.019909382
2.107723951 -0.1667949557 1.018393993
2.061298847 -0.1595338285 1.018950939
2.11533308 -0.1526277661 1.017491341
2.051032543 -0.1421097517 1.011112213
6.88511467 -0.1421704292 1.01918304
2.109907627 -0.1376990676 1.010344028
6.785182953 -0.1320284605 1.011781216
2.068551064 -0.1265005767 1.017033815
2.04643321 -0.103835471 1.011423111
2.07217741 -0.1099839509 1.016075373
6.907557011 -0.1003856659 1.016520977
2.046563148 -0.08693563193 1.010307312
6.952441216 -0.01681637764 1.01119709
6.731417656 0.2673197985 1.01854527
6.742170334 0.3162975311 1.015702963
6.923814774 2.516727924 1.018826246
6.924222946 2.569883108 1.015316725
7.069901943 2.894464731 1.018460751
7.221470833 3.343082666 1.014262438
7.379232883 3.698066235 1.017432928
1.837613344 -2.236729145 1.021657109
1.831033707 -2.15863061 1.022529483
1.831577182 -2.128654242 1.023458242
1.786542296 -2.108009338 1.02041328
1.845730305 -2.042867422 1.023576975
1.798298836 -2.034572601 1.02902472
1.807981253 -2.016545296 1.027876258
1.833613634 -1.994556427 1.023139596
1.848184824 -1.978317022 1.021805882
1.853790283 -1.979343295 1.024341345
1.865518093 -1.962682247 1.021685123
1.882770061 -1.947229981 1.021454811
1.889979482 -1.929255843 1.020689964
1.815190673 -1.911931634 1.027351141
1.871235132 -1.907596827 1.029603481
1.824725509 -1.894178987 1.026220202
1.871296883 -1.877711892 1.021771669
1.8874017 -1.864233255 1.02216363
1.902628779 -1.849365711 1.020793796
1.822022557 -1.810300112 1.026751041
1.90155983 -1.783842087 1.021150827
1.8408041 -1.77533102 1.024523258
1.914553523 -1.771723747 1.020722866
1.85019505 -1.757846355 1.023409367
1.859585762 -1.740361691 1.022295475
1.883143187 -1.736825466 1.023888826
1.896950603 -1.721525073 1.022513628
1.926220894 -1.719914675 1.029426813
1.940140367 -1.704490066 1.028040409
1.926509738 -1.696894169 1.020870805
1.941848993 -1.679586887 1.023277283
1.797769547 -1.654702425 1.024010897
1.865517855 -1.642673731 1.021704078
1.801465869 -1.637866378 1.023033857
1.805162191 -1.621030331 1.022056818
1.874768257 -1.625450492 1.020606875
1.948203444 -1.62829721 1.027673483
1.96190393 -1.613115311 1.026308894
1.808858514 -1.604194164 1.021079659
1.94820714 -1.601857305 1.022915483
1.961976051 -1.586512327 1.021655321
1.831954718 -1.563914299 1.024899244
1.949405074 -1.554087162 1.021189332
1.956508636 -1.55485189 1.027577162
1.835675597 -1.546966672 1.023915648
1.894363403 -1.54218173 1.027634859
1.856003284 -1.523625135 1.029128551
1.90354538 -1.525085926 1.026545644
1.983191371 -1.523000598 1.029195189
1.859750032 -1.506558657 1.028138161
1.912727475 -1.507989883 1.025456548
1.959711909 -1.485405207 1.021013618
1.964390993 -1.483482242 1.027392626
1.989022851 -1.482834458 1.027614355
1.977678895 -1.46875751 1.026069164
1.87473774 -1.43829298 1.024176478
2.018416166 -1.190370679 1.024047613
2.009400129 -1.17257452 1.021493912
2.030945301 -1.176486969 1.02279973
2.043474436 -1.16260314 1.021551728
2.022505522 -1.159778595 1.020315051
1.955069065 -1.147103786 1.029632807
1.926270127 -1.120368838 1.023408175
1.926392913 -1.104396462 1.022353649
2.045139551 -1.109814882 1.027298689
1.912417412 -1.095554233 1.025322199
1.938436031 -1.095158696 1.027618289
2.038301945 -1.084521413 1.023929596
1.916113734 -1.078718066 1.02434516
1.938559413 -1.079087615 1.026557207
2.02767396 -1.078527212 1.029431701
2.050796032 -1.070597172 1.02278614
1.938682914 -1.063016176 1.025496125
1.959062934 -1.064320445 1.028875351
2.057915926 -1.063518524 1.029910564
1.911190271 -1.048894286 1.028332591
1.923506379 -1.045045853 1.022391081
1.967672586 -1.048290133 1.027854085
1.911312222 -1.033020735 1.027284622
1.938929915 -1.030873895 1.023373961
1.930899143 -1.011373758 1.020437002
1.984798431 -1.013667107 1.023301244
1.995406508 -1.007690191 1.028103352
1.97847414 -0.9856617451 1.029234529
2.006252527 -0.9878919125 1.024702191
2.018661499 -0.9757758379 1.023586035
1.979978204 -0.952231586 1.026150823
1.912043929 -0.9377794266 1.020996332
1.888895154 -0.9166187048 1.023163199
1.892496824 -0.90021348 1.022211075
2.011776686 -0.8972235322 1.02611351
1.896098614 -0.8838083148 1.021259069
2.02387023 -0.8854154944 1.025025606
1.912564635 -0.8732378483 1.027249575
1.983660102 -0.8744190931 1.025532007
1.992035866 -0.8588243723 1.024538517
1.992634773 -0.8337545991 1.029160857
1.971696019 -0.829867363 1.027401209
1.991491914 -0.817088604 1.021466494
1.90937078 -0.8097430468 1.028060913
1.887246847 -0.7903705835 1.020196438
1.905617714 -0.7624285221 1.024395227
2.038481236 -0.7663505077 1.023602724
1.889944553 -0.7512061596 1.026755691
1.905287027 -0.7566429377 1.028447986
1.943915009 -0.7580813169 1.024546146
1.984696627 -0.7599979043 1.021148682
2.015531301 -0.7565931678 1.028788805
2.035768747 -0.7520359755 1.025893569
2.053794146 -0.7566516399 1.024068832
2.063577175 -0.7584131956 1.029283881
1.807456255 -0.7444559336 1.022837877
1.916337967 -0.7468073964 1.024269223
1.948645234 -0.7456706166 1.027982473
2.047410727 -0.7406688929 1.024846315
2.065039635 -0.7441900969 1.022948742
2.075161934 -0.7455021143 1.028223634
1.747721076 -0.7302981615 1.028958201
1.761493802 -0.738823235 1.02037096
1.829396486 -0.7371054888 1.02819705
1.906512737 -0.7268184423 1.026454806
2.073007345 -0.7278718948 1.020442724
2.032167912 -0.7173477411 1.027006865
2.048855543 -0.7196656466 1.025469542
1.818330288 -0.7099150419 1.026663542
1.889340281 -0.7031484246 1.025009394
2.04366827 -0.7061187029 1.025972366
1.821757436 -0.6943048239 1.02575767
1.847215414 -0.691593051 1.021917343
1.862413883 -0.6928142309 1.028061986
1.910224438 -0.6986282468 1.020724535
1.964710474 -0.6958565712 1.02311933
2.007451773 -0.6947338581 1.022618532
2.055169106 -0.6948896646 1.024937868
2.028928518 -0.6839493513 1.028406858
2.082179785 -0.6827381253 1.022150278
2.090684891 -0.6804884076 1.027074337
1.96835947 -0.6792359352 1.022154808
1.972008586 -0.6626152992 1.021190166
2.023764372 -0.6643620133 1.020683527
2.064404011 -0.6587616801 1.023864388
1.934504747 -0.6430428624 1.029190302
2.075369358 -0.646610558 1.022772074
2.082546949 -0.6420756578 1.027686357
1.934628248 -0.626971662 1.028129101
1.963361502 -0.6237438917 1.02933073
2.093837261 -0.6294928789 1.026652932
2.069983959 -0.6117582321 1.023999453
2.069281816 -0.6063492298 1.024692297
1.970613837 -0.59071064 1.027413607
2.040793896 -0.5973518491 1.027242422
2.080504894 -0.5953910351 1.023682714
2.048899651 -0.5822597742 1.02628088
1.962661505 -0.5706813931 1.02064383
1.974240065 -0.5741940141 1.026455164
2.096204281 -0.5796040893 1.025899291
2.074819565 -0.5657150149 1.023828983
1.977866173 -0.5576773882 1.025496602
2.10004735 -0.55609864 1.029889822
1.974835873 -0.5414127707 1.024682641
1.9814924 -0.5411607623 1.02453804
2.088719845 -0.5435646176 1.026762486
2.099725723 -0.5312988162 1.025755167
1.974961519 -0.5250450969 1.02360189
2.091902494 -0.5237734318 1.029765725
2.094308138 -0.5114246607 1.023775697
2.102536917 -0.5119891763 1.028706431
1.975087285 -0.508677423 1.022521257
1.988744736 -0.5081275105 1.022621036
2.113171339 -0.5002048016 1.027647257
1.992370963 -0.4916109145 1.021662474
2.059691906 -0.497867763 1.024822474
1.975338817 -0.4759420156 1.020359874
1.99599719 -0.4750942886 1.020704031
2.113384724 -0.4719113111 1.024307013
2.106956482 -0.4679906964 1.028513074
2.105177402 -0.4538049102 1.021488428
2.115623474 -0.4422294497 1.020447969
1.986201644 -0.4374028742 1.028249264
2.091697693 -0.4382768273 1.021026134
2.105572224 -0.4379802346 1.025021315
2.114001036 -0.4255645871 1.026284218
1.98868978 -0.4131403565 1.022644043
2.082699537 -0.4180448055 1.029578924
2.109620333 -0.4112861156 1.021447182
2.077412128 -0.400783658 1.022120953
2.132462978 -0.4020991921 1.026461244
1.988816381 -0.3966662288 1.021556377
1.988942862 -0.380192101 1.020468712
2.085309267 -0.386080265 1.021184206
2.131734848 -0.383389473 1.029811859
2.093206167 -0.3713768721 1.020247579
2.034072399 -0.3616881669 1.020390749
2.113375902 -0.3696535826 1.021123648
2.129133463 -0.3692913055 1.022501588
2.085854292 -0.3521019816 1.029454947
2.110021591 -0.3534268141 1.029244661
2.123577356 -0.3583490849 1.020107508
2.002174616 -0.3329066634 1.023777127
2.080286264 -0.335413456 1.021928668
2.134455919 -0.3393856883 1.029515505
2.025036812 -0.3247000575 1.028536081
2.088086128 -0.3208910227 1.021003485
2.144999743 -0.3276349306 1.028550625
2.014236927 -0.3182116449 1.028778315
2.014365196 -0.3015322685 1.027677059
2.028663158 -0.3081834316 1.027577639
2.09588623 -0.3063685298 1.020078301
6.795345783 -0.3093094826 1.029830933
2.002556801 -0.2831650078 1.020493031
2.035915375 -0.2751501799 1.025660515
2.095083237 -0.2731144428 1.027626276
2.014621496 -0.268173486 1.025474548
2.014749527 -0.2514941096 1.024373293
2.102832794 -0.2586858273 1.026707053
2.014877796 -0.2348147184 1.023272038
2.05964613 -0.2269674242 1.029236794
6.840229988 -0.2257399559 1.024507046
2.027863741 -0.2195272744 1.028693318
2.09769702 -0.2104937434 1.027374148
2.027992487 -0.2027414441 1.02758503
2.050420284 -0.2090837061 1.021826506
2.054046392 -0.1925670803 1.020867944
2.092505693 -0.1951295137 1.02019906
2.028121471 -0.1859556437 1.026476741
6.862672329 -0.1839551926 1.021844983
6.509952545 -0.1703773737 1.024454713
2.028250456 -0.1691698283 1.025368452
2.02837944 -0.1523840129 1.024260163
2.099629641 -0.1493276954 1.026824951
2.028508425 -0.1355981827 1.023151875
2.107191801 -0.1352475882 1.02592802
2.042418718 -0.1196194962 1.028986812
2.042548656 -0.1027196571 1.027871013
6.688405514 0.07140862942 1.029914737
6.699158669 0.1203864813 1.02707243
6.720664501 0.2183419466 1.021387696
6.923406124 2.463572979 1.022335768
7.068651199 2.731692314 1.029207706
7.069068432 2.785949707 1.025625467
7.378798008 3.641474962 1.021169305
7.0632658 3.657650709 1.02111423
1.838600755 -2.273840427 1.032163501
1.772654295 -2.22125268 1.030658484
1.802784204 -2.223219395 1.037913561
1.831900358 -2.19435668 1.032835484
1.814835668 -2.178056479 1.035048246
1.848118067 -2.172983646 1.033398151
1.840487719 -2.101073265 1.032182574
1.829281211 -2.090602398 1.034912944
1.792795897 -2.08667779 1.039364338
1.855429769 -2.084420681 1.030815005
1.845150232 -2.075108051 1.033485532
1.802553892 -2.068509579 1.038206935
1.873673558 -2.066355705 1.031645298
1.834280491 -2.027491331 1.032999516
1.854771972 -2.012070656 1.03444016
1.843468189 -2.006283998 1.034905672
1.859076023 -1.991044641 1.033501625
1.800049782 -1.979916334 1.038517952
1.80965662 -1.962029457 1.03737843
1.819263339 -1.944142818 1.036238909
1.841479182 -1.939311981 1.036076546
1.872471094 -1.93980217 1.039578795
1.879241109 -1.911381602 1.032645941
1.848083735 -1.890482903 1.032820463
1.807575703 -1.876920938 1.037980795
1.86082232 -1.861270785 1.03531611
1.874965906 -1.845597863 1.033907294
1.894307733 -1.838438988 1.037491918
1.889109492 -1.829924941 1.032498598
1.901779175 -1.815035701 1.031522274
1.915412545 -1.801068664 1.030595899
1.88756752 -1.772081852 1.038233995
1.901671529 -1.756363273 1.036943078
1.915775537 -1.740644693 1.035652161
1.912384987 -1.739501834 1.031819701
1.928566337 -1.72495544 1.032421827
1.874994874 -1.702348471 1.039419651
1.943983674 -1.709207535 1.033070445
1.869965792 -1.672060251 1.030354738
1.935756445 -1.671459436 1.038448811
1.923821926 -1.665337682 1.031546235
1.938456059 -1.651049137 1.030229807
1.949563861 -1.656159043 1.037073612
1.936276555 -1.64567399 1.03371501
1.797800303 -1.636088014 1.039810896
1.950157166 -1.630204439 1.032444596
1.871446133 -1.622451782 1.039669514
1.801496625 -1.619251966 1.038833857
1.83726871 -1.608957291 1.034080744
1.880696535 -1.605228662 1.038572311
1.841015577 -1.591890812 1.033090353
1.935391903 -1.593867064 1.03154099
1.889946938 -1.588005424 1.03747499
1.89919734 -1.570782185 1.036377788
1.949802995 -1.579796314 1.030244708
1.955866933 -1.553452969 1.031696081
1.852256298 -1.540691614 1.030118942
1.969529152 -1.538226843 1.030445576
1.946442485 -1.524409413 1.031444669
1.952629328 -1.524381995 1.03793776
1.9606359 -1.510551095 1.030167937
1.966019154 -1.509544373 1.036604047
1.875626326 -1.499163389 1.033866048
1.87939775 -1.481985331 1.032869101
1.990282416 -1.475398064 1.037735224
1.883169174 -1.46480751 1.031872272
1.913460493 -1.459975958 1.034445763
1.922574162 -1.44300735 1.033364773
2.02443099 -1.201758385 1.037088633
1.959952354 -1.171411395 1.037883162
1.913874388 -1.153592706 1.035071015
2.033443689 -1.143121958 1.036948442
2.05362916 -1.144940495 1.0385077
1.917595148 -1.136645079 1.03408742
1.977538943 -1.138667226 1.035797119
2.04654932 -1.130326033 1.035769582
1.910580516 -1.128262043 1.033572793
1.921957374 -1.119505882 1.036028624
2.029340506 -1.098745584 1.038003922
2.045646667 -1.077114463 1.031132579
1.932478428 -1.068854928 1.030153394
1.950728893 -1.053383231 1.030734777
2.024578333 -1.055176258 1.038635731
1.919840932 -1.043267488 1.039168239
2.023431063 -1.035775661 1.030413032
1.911690593 -1.020142555 1.031766772
1.927233577 -1.009595394 1.037214041
1.980682969 -1.006105781 1.037718534
2.007809877 -1.006852388 1.033005238
2.021023273 -1.001263022 1.033985615
1.930929899 -0.9927592278 1.036237001
1.977118373 -0.990834415 1.035566568
1.98034656 -0.997766912 1.03858304
1.992121935 -0.9847183824 1.037410259
1.946676135 -0.974542439 1.038577795
1.985670567 -0.9749113321 1.034552097
1.894433618 -0.9558210373 1.032042265
2.015693665 -0.9538505077 1.032509208
1.909975052 -0.9451662302 1.037587643
2.028021336 -0.941814065 1.031400204
1.908395171 -0.9367313981 1.036445141
1.97197628 -0.9274365902 1.03557682
1.980409622 -0.9117346406 1.034576654
1.988843083 -0.896032691 1.03357625
2.032984734 -0.8910278082 1.033433318
1.928220272 -0.8620629907 1.032764912
2.020258188 -0.8643376827 1.033363342
1.931869268 -0.8454422951 1.03180027
1.935518265 -0.8288216591 1.030835867
1.963246822 -0.8062408566 1.036197662
1.977558494 -0.8088717461 1.031129837
1.97668016 -0.7559708953 1.032601953
1.997666121 -0.7510347962 1.030110359
1.747605205 -0.7461173534 1.035936594
1.851941586 -0.74051404 1.030830145
1.876716137 -0.749286294 1.038419008
1.889317036 -0.7473216653 1.037176371
1.913259625 -0.7440850735 1.035801888
2.062908649 -0.7407983541 1.039287806
1.793540001 -0.7358956933 1.031780005
1.884566426 -0.734670043 1.037487745
1.967841387 -0.7331807017 1.035895586
2.033076286 -0.7329080105 1.034355521
1.713474512 -0.7290444374 1.032200694
2.004297972 -0.7298086882 1.031328321
1.657633305 -0.7156028748 1.037727237
2.012508154 -0.7145222425 1.0303545
2.08068037 -0.7102782726 1.035533428
1.945230484 -0.7063269615 1.034123182
1.895618439 -0.6935712099 1.030218601
1.934134364 -0.6912564635 1.032373548
1.961091876 -0.694100976 1.039681673
2.04468298 -0.6996107101 1.033821702
2.092189312 -0.6974520087 1.034480214
1.880142927 -0.6881924868 1.039031267
2.055719852 -0.6873805523 1.032722354
1.946152329 -0.6793372631 1.037654519
1.964740992 -0.67748034 1.03871727
2.052087307 -0.6762384176 1.033149481
2.066756725 -0.6751503944 1.031623006
1.946276546 -0.6631672382 1.036586881
2.063517332 -0.6650784612 1.032121301
2.062325954 -0.6554543972 1.039796472
2.074947119 -0.6539185047 1.031093121
2.084317207 -0.6586870551 1.035165429
1.972038984 -0.644239068 1.036788106
2.028991461 -0.6465320587 1.036523938
2.073291302 -0.6433032751 1.038704157
2.037147522 -0.6313462257 1.035556555
2.071606159 -0.6355851293 1.039138079
2.071357012 -0.6242509484 1.031751394
1.946649194 -0.614657104 1.033383965
1.979336977 -0.6109977365 1.034858942
2.045303822 -0.6161602736 1.034589052
2.067931175 -0.6084909439 1.039739132
1.94677341 -0.5984870791 1.032316446
2.066091299 -0.5929583907 1.032310486
2.078649044 -0.5920848846 1.038936734
2.098382473 -0.595705092 1.033438802
1.946897626 -0.5823170543 1.031248808
2.076858044 -0.5810273886 1.031238079
2.089872122 -0.5811268091 1.03792727
1.947021842 -0.5661470294 1.03018117
2.088889599 -0.5669931173 1.030893445
2.083492756 -0.5506299734 1.038310289
2.04848671 -0.5458856821 1.034134865
2.085942268 -0.5497191548 1.038947821
1.959171891 -0.5370694995 1.034329176
2.056538582 -0.5308941603 1.03317976
2.095613956 -0.5388303995 1.037597299
1.971199274 -0.5239644051 1.039531827
2.095736742 -0.5250928402 1.030857086
2.064590454 -0.5159026384 1.032224655
1.97132504 -0.5075967312 1.038451195
1.985148787 -0.5063828826 1.039079785
2.092495441 -0.5081954598 1.038674712
1.971450686 -0.4912289977 1.037370443
2.090946913 -0.4946737885 1.031516433
2.104369402 -0.499060154 1.032499313
2.109627008 -0.4825350642 1.036048889
2.115304232 -0.4868735671 1.031498551
2.07282114 -0.4654785395 1.039413214
2.10976243 -0.4674088955 1.039553404
1.99602735 -0.4568330348 1.036204219
2.105465889 -0.4516376257 1.034473419
1.971827984 -0.4421259761 1.034128428
2.066804647 -0.4476392865 1.031464338
2.074752092 -0.4328420162 1.030521631
2.113644123 -0.439078927 1.035625219
1.97195375 -0.4257582426 1.033047795
2.003279686 -0.423799783 1.034287214
2.112730503 -0.4215667844 1.039099693
1.984902978 -0.4120526612 1.038677573
2.006906033 -0.4072831571 1.033328652
2.123467445 -0.4096009135 1.038117051
1.985029578 -0.3955785334 1.037589788
2.023155689 -0.3931738138 1.038882256
2.074576139 -0.3982236385 1.03839457
2.121064186 -0.3952817321 1.030788541
2.08247304 -0.3835202456 1.037457943
2.128311634 -0.3852922916 1.034390211
1.985156059 -0.3791044056 1.036502123
2.014158249 -0.3742499053 1.031411648
1.98528266 -0.3626303077 1.035414457
2.090370178 -0.3688168526 1.036521196
2.125598907 -0.364898324 1.037377477
2.017784595 -0.3577333093 1.030453205
2.136203766 -0.353079617 1.036406875
6.772903442 -0.3510940075 1.032492876
1.98540926 -0.3461561799 1.034326792
2.034102917 -0.3433119059 1.035988569
2.077485085 -0.3328849673 1.038002133
2.085285187 -0.318362534 1.03707695
6.478300571 -0.3145465851 1.032821417
2.093085051 -0.3038400412 1.036151767
2.045049906 -0.2934499681 1.033094883
2.100884914 -0.2893176079 1.035226583
2.052347898 -0.2602086961 1.031165838
2.055996895 -0.2435880601 1.030201197
2.011043787 -0.2337134629 1.039505243
2.102794886 -0.2260322571 1.034560442
2.046824217 -0.2073390484 1.038285255
2.104991198 -0.1643283367 1.034074306
2.061329126 -0.1412725449 1.034451246
2.064955235 -0.1247559488 1.033492684
2.127818584 -0.1218265295 1.031366706
2.068581343 -0.1082393229 1.032534122
6.656147003 -0.07552468777 1.038441777
6.666899681 -0.0265468359 1.03559947
6.677652836 0.02243089676 1.032757044
6.8428545 0.03140854836 1.036023974
6.864897251 0.07244968414 1.033409357
7.068234444 2.677434921 1.032790065
7.219342709 3.066093683 1.032550573
7.377493858 3.471700907 1.032378554
1.83250308 -2.230377197 1.043165803
1.833779216 -2.225640774 1.045492649
1.849022865 -2.208748817 1.0439744
1.826011419 -2.152388334 1.043667793
1.842907548 -2.134653568 1.043627739
1.773279905 -2.123014212 1.041679263
1.828930497 -2.123939276 1.045211554
1.859718561 -2.117108822 1.043474197
1.783037901 -2.104846001 1.04052186
1.874702454 -2.100504637 1.041981697
1.855509043 -2.045068741 1.044563293
1.843127728 -2.038231134 1.044968128
1.804503918 -2.013406515 1.047829032
1.851044416 -1.974973083 1.045394182
1.857899785 -1.956041574 1.04091239
1.865534425 -1.958916426 1.043950915
1.880024314 -1.942859769 1.042507648
1.871942639 -1.939808369 1.043118238
1.887420058 -1.924696565 1.041725993
1.861266613 -1.891660571 1.044939995
1.880868912 -1.885507703 1.048550129
1.830836058 -1.873335481 1.044737816
1.89531827 -1.869404197 1.04722774
1.840370893 -1.855582833 1.043606877
1.884883642 -1.859747648 1.042859554
1.900110722 -1.844880104 1.04148984
1.888325572 -1.801845074 1.047718763
1.828040838 -1.789771318 1.044989109
1.928021789 -1.781867504 1.049770236
1.89890182 -1.779611707 1.041530132
1.856213331 -1.737317562 1.041647434
1.865604043 -1.719832897 1.040533543
1.894334078 -1.717360616 1.042574644
1.92358315 -1.715716481 1.049650908
1.937502623 -1.700291872 1.048264384
1.924070835 -1.692549586 1.040916085
1.937187314 -1.67379272 1.042898059
1.805940151 -1.663809419 1.047688484
1.86661911 -1.669039488 1.049558401
1.875937939 -1.651688933 1.048452973
1.950670242 -1.632449508 1.048803568
1.945607185 -1.624165058 1.047579288
1.817102671 -1.612966776 1.044738054
1.959307671 -1.608983159 1.0462147
2.191816568 -1.605938196 1.040602207
1.820823431 -1.596019149 1.043754458
1.973008156 -1.59380126 1.044850111
1.95738709 -1.58080852 1.040969729
1.84104681 -1.573021889 1.049106598
1.947419882 -1.575551033 1.049831629
1.844793797 -1.55595541 1.048116207
1.947039843 -1.549874067 1.040628314
1.891065836 -1.539205194 1.046556473
1.900247812 -1.52210927 1.045467377
1.909429908 -1.505013466 1.044378281
1.958288789 -1.506369948 1.049458981
1.992300153 -1.502114892 1.047109604
1.972482324 -1.49251163 1.048182249
1.918611884 -1.487917542 1.043289185
1.879429221 -1.462993026 1.048990011
1.883200645 -1.445815206 1.047993183
2.028571129 -1.172708035 1.041003466
1.893966556 -1.161120296 1.046007633
2.034576178 -1.163904071 1.04544425
2.055996418 -1.167162776 1.047365427
2.081238031 -1.139191985 1.044851303
1.917626262 -1.117907286 1.049992085
1.934618354 -1.110168934 1.044320703
1.908751965 -1.093775868 1.042099476
1.934741735 -1.094097614 1.043259621
1.912448287 -1.076939702 1.041122317
1.934865236 -1.078026533 1.042198539
2.043321609 -1.073414087 1.048959017
1.928788662 -1.067064762 1.047041655
2.004325867 -1.046723962 1.04141283
1.919540763 -1.038397789 1.049225569
1.947136164 -1.036145687 1.045404673
2.008325577 -1.025550008 1.040874004
1.981800079 -1.013438463 1.043554068
1.951455951 -0.9969065785 1.046669841
1.962500095 -0.9940510988 1.047137737
1.991791368 -0.9963524938 1.042684317
2.004200459 -0.9842363596 1.041568041
2.018335581 -0.9857013226 1.042447686
1.920031548 -0.9745081663 1.045007348
2.030735731 -0.9787691832 1.047741175
1.96843791 -0.9652882814 1.044655561
2.028715611 -0.9647160769 1.041781425
1.920154333 -0.9585359097 1.043952703
2.040567398 -0.9515829086 1.040601015
1.976928949 -0.9494791031 1.043648362
1.894463897 -0.9375597239 1.047542572
1.898090005 -0.921043098 1.046583891
2.025733948 -0.920574069 1.04058516
2.048766851 -0.9159243107 1.048654556
1.901716232 -0.9045264721 1.045625448
2.022416592 -0.8991363049 1.049108267
2.021870375 -0.8818529248 1.04146266
1.994247675 -0.8775969148 1.049954891
2.018271685 -0.8607991934 1.049689412
1.989027858 -0.8561092615 1.04179883
1.92825067 -0.8436866999 1.048362732
1.933023095 -0.8358972669 1.041923404
1.990685344 -0.8302817941 1.045183897
1.91984725 -0.8219434023 1.040832877
1.968726754 -0.8271871805 1.044438958
1.898489714 -0.7770077586 1.041585326
1.871695638 -0.7658499479 1.044791102
2.048130989 -0.7665252686 1.046595097
1.899206042 -0.7521976233 1.047956228
1.952598333 -0.7581777573 1.04678154
1.974602222 -0.7526636124 1.048534036
2.05166316 -0.7532598972 1.040407896
1.808450341 -0.7416859865 1.042941093
1.85314393 -0.7468941808 1.045469284
1.889848351 -0.7476751804 1.049891114
1.910363913 -0.7413032651 1.046952486
1.958014727 -0.7464943528 1.049355984
2.033843517 -0.7486064434 1.041716933
2.071300983 -0.7407031059 1.044474483
1.754550219 -0.7301928997 1.049595475
1.799546242 -0.7387617826 1.045042515
1.833692074 -0.7362896204 1.048933625
1.874271154 -0.7383973002 1.046191692
1.703874707 -0.7234835029 1.049003601
1.710063696 -0.724805057 1.046556473
1.778800726 -0.7270408869 1.040049314
1.915802836 -0.7287864685 1.049375296
2.001349449 -0.727147162 1.048247337
2.082885981 -0.7277920246 1.043414235
1.625899315 -0.7146988511 1.040967107
1.687143326 -0.7125117779 1.048862219
1.726888061 -0.7168893218 1.04824245
2.009559631 -0.7118607163 1.047273517
2.044742346 -0.7172583342 1.045325279
1.543680668 -0.7011294365 1.048917413
1.573818088 -0.7020103931 1.046107173
1.60424006 -0.7027420998 1.042978287
1.644149065 -0.709046483 1.049102545
2.041766644 -0.7027308345 1.041603327
1.587757826 -0.695443511 1.049296379
1.818358898 -0.692655921 1.041313171
1.854587913 -0.6946638823 1.043053389
1.930440187 -0.690195322 1.048014879
2.017769814 -0.6965742707 1.046299696
2.042591572 -0.6962819695 1.049857378
2.053267241 -0.6915017962 1.040568829
1.424722672 -0.6810802221 1.048540235
1.487107396 -0.6855718493 1.048173785
1.865622401 -0.6831598878 1.04816258
2.025979996 -0.6812878251 1.045325756
2.053628445 -0.6840518117 1.04875803
1.500861287 -0.679893434 1.047759056
2.064665318 -0.6718216538 1.047658682
2.086872816 -0.6757503748 1.043118477
1.981548309 -0.6652338505 1.044722319
2.034190178 -0.6660013795 1.044351935
2.06162715 -0.6617114544 1.047656178
1.584815741 -0.6505209804 1.04407382
2.073056936 -0.6505514383 1.046627998
2.090074539 -0.6248158216 1.042490721
2.06914258 -0.6177175641 1.047507524
2.101364613 -0.6122330427 1.041457295
2.08043623 -0.6066904664 1.046491623
2.037882805 -0.5947241783 1.043946266
2.094645023 -0.5910596251 1.04916966
2.064389944 -0.587602973 1.048009872
1.983016491 -0.5760008097 1.049492359
2.04598856 -0.5796321034 1.042984843
2.074817896 -0.5777800679 1.046881437
2.10585928 -0.5785617232 1.048143268
2.054094553 -0.5645400286 1.04202342
2.08631444 -0.5647776127 1.045933843
2.103633404 -0.5625693798 1.040510535
1.970947742 -0.5566997528 1.041693211
1.986665487 -0.5593802333 1.048527718
1.990314484 -0.5427595377 1.047563314
2.098538876 -0.5423910618 1.048900723
1.981522679 -0.5228995085 1.040038347
2.089887142 -0.5205660462 1.04521668
2.094985485 -0.5242919922 1.043519378
2.107063532 -0.5144737959 1.040186644
2.100521564 -0.5087817907 1.044157505
2.001261711 -0.4928976297 1.044669628
2.069750547 -0.4983008504 1.047862411
2.089144945 -0.4914637804 1.046326756
2.111156225 -0.496997416 1.043098211
2.064819813 -0.4803762436 1.040362358
2.111659765 -0.4823437929 1.046837568
1.984396696 -0.4779491425 1.043028355
2.004910707 -0.4762769938 1.043704987
1.984523296 -0.4614750147 1.041940689
2.071897984 -0.4302657247 1.046899199
2.114935875 -0.4361064434 1.046446323
1.968191385 -0.4246776104 1.048977733
2.122110367 -0.4243529439 1.049762011
2.079845428 -0.4154684544 1.045956492
2.120110035 -0.4104748368 1.042584062
2.003309965 -0.4055384994 1.049787521
2.117507696 -0.390861392 1.045757055
2.130495071 -0.3989670873 1.041549683
2.126355171 -0.3821786046 1.049389839
2.128178596 -0.3789691329 1.044780493
2.124060631 -0.3686577678 1.042153716
2.119710922 -0.3521954417 1.049751639
2.083034992 -0.3495571613 1.045632243
2.010274887 -0.3337897956 1.046112776
2.130941868 -0.3350179195 1.04430604
2.153878689 -0.3250493407 1.049341679
2.041431427 -0.2916943431 1.049657464
2.010659218 -0.2837516367 1.04280901
2.032319546 -0.2734055519 1.042119265
2.092300177 -0.2706022859 1.043596029
6.613134861 -0.2714356184 1.049811125
6.942382812 -0.2721483707 1.04592967
2.010787487 -0.2670722306 1.041707754
2.010915518 -0.2503928542 1.040606499
2.035945654 -0.256888926 1.041160822
2.100049496 -0.2561736703 1.042676806
2.052378416 -0.2418324202 1.046763778
2.107799053 -0.2417449951 1.041757584
2.056027412 -0.2252117842 1.045799255
6.623888016 -0.222458005 1.046968818
2.024005175 -0.2184190005 1.045030117
2.107731342 -0.2091937661 1.049519777
2.063325405 -0.1919705123 1.043870091
2.102603436 -0.1937575936 1.042242765
2.024263144 -0.1848473698 1.04281354
2.066974401 -0.1753498614 1.042905569
2.110259533 -0.1795032024 1.041334629
6.73264122 -0.1737954617 1.049096942
2.038144588 -0.1692032516 1.04878211
2.102258682 -0.1618617177 1.04975462
2.038274527 -0.1523034126 1.047666311
2.070623398 -0.1587292254 1.041940928
2.109867811 -0.1476945281 1.048851967
2.038404226 -0.1354035437 1.046550512
2.11747694 -0.1335271001 1.047949433
2.061359167 -0.123011291 1.049951553
6.645393848 -0.1245024204 1.041284084
2.038534164 -0.1185036972 1.045434713
2.125086069 -0.1193599105 1.0470469
2.038663864 -0.1016038582 1.044318914
2.064985514 -0.1064946651 1.048993111
2.068968773 -0.08845871687 1.044092178
6.523449898 0.3147605956 1.047427177
6.523834705 0.3648747504 1.044118404
6.61554718 0.3633198738 1.041665196
7.066567421 2.460405111 1.047119379
7.059931278 3.223591566 1.049772978
6.907953739 3.64000392 1.048592329
7.211290359 3.679126501 1.04623282
6.908361912 3.693159103 1.045082808
1.833444715 -2.267431736 1.053864598
1.769814849 -2.216733456 1.052428961
1.826833963 -2.188059568 1.054159045
1.830143213 -2.185171366 1.056858778
1.845254421 -2.168426037 1.055353642
1.828307509 -2.157541752 1.055534601
1.789291382 -2.08351469 1.059472919
1.8504498 -2.078230858 1.051775217
1.799049377 -2.065346479 1.058315516
1.808807373 -2.047178268 1.057157993
1.8373909 -2.023855686 1.057126045
1.842481852 -2.003357887 1.054192543
1.852003098 -2.007663727 1.0556705
1.857632399 -1.987550497 1.052818179
1.815813303 -1.941028595 1.056035995
1.847771883 -1.938900471 1.056391716
1.825420022 -1.923141956 1.054896355
1.862144709 -1.922973633 1.054960132
1.882186055 -1.917526722 1.058685303
1.858142138 -1.857005 1.055865645
1.889530897 -1.83250165 1.05759716
1.832565665 -1.820997596 1.054113865
1.897806883 -1.811368942 1.052488208
1.900572896 -1.809986353 1.051639318
1.912914276 -1.796618223 1.051129222
1.851491332 -1.785760403 1.051868916
1.860954046 -1.768141747 1.05074656
1.896970868 -1.750520706 1.056727767
1.895744205 -1.74656558 1.052423716
1.911074877 -1.734802127 1.05543685
1.939563036 -1.733639598 1.058753967
1.862231493 -1.716788769 1.059885502
1.925179005 -1.719083548 1.054146051
1.939283013 -1.703364849 1.052855134
1.871622324 -1.699304223 1.05877161
1.921401858 -1.661026716 1.051436305
1.946947336 -1.651994705 1.057134748
1.936035991 -1.646738052 1.050119877
1.945530891 -1.624454498 1.051915765
1.959411502 -1.608984947 1.050645351
1.837299943 -1.590088129 1.050096989
1.886624813 -1.585006714 1.056537628
1.820854425 -1.577281475 1.059659243
1.955070853 -1.577409267 1.056441665
1.824575186 -1.560333967 1.058675647
1.895875216 -1.567783475 1.055440426
1.968664408 -1.562345982 1.055087686
1.966567039 -1.559759736 1.059023976
1.860572338 -1.548882365 1.05397439
1.980335832 -1.544414759 1.057763815
1.864343762 -1.531704545 1.052977562
1.944095373 -1.520228267 1.050735831
1.994104624 -1.529069781 1.056503654
1.868115187 -1.514526725 1.051980734
1.963481784 -1.505506039 1.056058407
1.871886492 -1.497348905 1.050983787
1.97687161 -1.490668416 1.054724813
1.88778758 -1.489718914 1.056809902
2.001883984 -1.48980248 1.05492115
1.985764623 -1.469782591 1.056750417
2.022233248 -1.197843313 1.055152416
2.035523653 -1.184866667 1.053956866
1.910184622 -1.15180254 1.051959276
1.965587616 -1.152188778 1.054960728
2.051254988 -1.14116168 1.056711435
1.916354895 -1.134543419 1.05326438
2.044382095 -1.126465321 1.053581834
2.063784122 -1.127277851 1.055463433
1.918927193 -1.118259668 1.054498434
1.991967559 -1.103072524 1.051831722
2.027203083 -1.094937801 1.055572271
2.063943148 -1.094921947 1.056620479
2.031052351 -1.087010026 1.050181031
1.93117106 -1.076965332 1.05783987
1.969848156 -1.068969607 1.0540483
1.919418097 -1.054370165 1.050280213
1.978519082 -1.052825332 1.053019762
2.001189947 -1.043893337 1.059407234
1.994895697 -1.024110913 1.053700805
1.92356801 -1.007816911 1.053991318
1.966339827 -1.007263899 1.0568645
1.927264333 -0.990980804 1.053014278
1.989739299 -0.9926970005 1.059550285
1.988728523 -0.9876580238 1.053541899
2.014286757 -0.9806687236 1.059489369
2.0306952 -0.9844404459 1.050135016
2.014557362 -0.9684648514 1.057317734
1.916482806 -0.9574813843 1.059497833
2.026966572 -0.9563486576 1.056201458
1.916605473 -0.9415088892 1.058443308
2.039375782 -0.944232583 1.055085182
2.050173044 -0.9348751903 1.056640148
1.852801561 -0.9271794558 1.058405161
1.968947649 -0.9247027636 1.052955866
2.023707867 -0.9169650078 1.057236671
1.977380991 -0.909000814 1.051955462
1.890414357 -0.8976992369 1.059124947
1.917303562 -0.8935486078 1.051256418
1.985814333 -0.8932988644 1.050955176
1.920952559 -0.8769279718 1.050291777
1.937466383 -0.8660188913 1.05637455
1.98601985 -0.8533940315 1.059059024
1.917341828 -0.8456747532 1.052115917
1.912625074 -0.8367153406 1.058250189
1.916251183 -0.8201987147 1.057291627
1.91987741 -0.8036820889 1.056333065
1.9602983 -0.8035793304 1.05311656
2.006809473 -0.7649790049 1.050446272
1.879214048 -0.7594594955 1.050950408
2.008020163 -0.7520954013 1.052164316
2.02539587 -0.7576181293 1.051157832
2.074181795 -0.7587953806 1.052832127
1.78593564 -0.7450033426 1.05267632
1.857229114 -0.745349288 1.05333662
1.876102567 -0.740365386 1.054957151
1.764260054 -0.7338299751 1.055325031
1.786927581 -0.7314000726 1.053639293
1.79664731 -0.7345446348 1.051712751
1.862293243 -0.7329618335 1.0593822
1.881747127 -0.7321252227 1.053665161
1.964930296 -0.730553031 1.052599549
2.043560266 -0.7338098288 1.056492925
2.060777664 -0.737406671 1.055626869
1.733149052 -0.720435679 1.059933662
1.741721153 -0.7222226262 1.057830095
1.80735898 -0.7240857482 1.050749183
2.079024792 -0.7229929566 1.059665203
1.573199391 -0.7168192267 1.053010941
1.654300332 -0.7114602327 1.051755309
1.696743727 -0.7197762728 1.051723242
1.714124441 -0.7103914022 1.05711472
1.768319845 -0.7181420326 1.050959349
2.090609789 -0.7100818157 1.058604836
1.615005136 -0.7034522891 1.058847427
1.633637905 -0.7025060058 1.057389736
1.744413972 -0.7072771788 1.053529501
1.786037445 -0.7082153559 1.05613637
1.941634536 -0.7045823336 1.050581932
1.429945111 -0.698004663 1.059893847
1.485874057 -0.6996622086 1.054720402
1.562332749 -0.6944172978 1.054134011
1.592651486 -0.6951403618 1.051230669
1.61446178 -0.6923635602 1.059808135
1.65299499 -0.6990841627 1.056948304
1.851024747 -0.6936404705 1.058139801
1.870208025 -0.6952813864 1.050257683
1.957473278 -0.6923453212 1.056244135
2.088353634 -0.6926845312 1.050624251
1.467441916 -0.6887660027 1.056895852
1.52410388 -0.6899219155 1.051104665
1.954307437 -0.6824151874 1.059830189
2.051365376 -0.6881139278 1.056199789
1.414522171 -0.6739848852 1.055942774
1.441031575 -0.67427665 1.052963257
1.961122274 -0.6757246852 1.055279732
2.062865973 -0.6768848896 1.055165291
1.592738152 -0.6673933864 1.050258279
1.9425596 -0.6620995998 1.052324414
1.259919405 -0.6554600596 1.059669971
1.314154148 -0.6592305899 1.059987783
1.338950157 -0.6595816612 1.05753231
2.094498634 -0.6582654119 1.058116078
1.954557419 -0.649877429 1.057681918
1.968420386 -0.6424834132 1.053350568
2.091892004 -0.6413185 1.050063133
1.95468235 -0.6336086392 1.056607842
2.04766202 -0.6327669621 1.059323311
2.069727659 -0.6322389245 1.054576874
2.071213484 -0.6399960518 1.05463624
1.972069383 -0.6258627772 1.052386045
2.08217907 -0.6278449297 1.053544044
1.954807401 -0.6173397899 1.055533648
1.988925934 -0.6132701635 1.058482766
2.042374611 -0.6135162115 1.051396847
2.065878391 -0.6052236557 1.055478811
2.097601891 -0.6075560451 1.057295084
1.992599368 -0.5965380669 1.057511806
1.966933966 -0.588354528 1.059784412
1.967059612 -0.5719868541 1.05870378
2.088016033 -0.5778206587 1.053181171
2.051183462 -0.5619122982 1.058727264
1.967185378 -0.5556191206 1.057623148
2.059289217 -0.5468202829 1.057765841
1.967311144 -0.5392514467 1.056542397
2.067394972 -0.5317281485 1.056804419
2.09216547 -0.5355448723 1.052791834
2.107514858 -0.5386304855 1.059216619
1.96743691 -0.5228837729 1.055461764
2.075500965 -0.5166360736 1.055842876
1.967562675 -0.506516099 1.054381132
2.098506451 -0.5055744052 1.059608579
2.103256226 -0.5088717937 1.057733059
1.967688441 -0.4901483655 1.053300381
2.109140873 -0.4937900305 1.058549404
2.114401579 -0.497648716 1.05461812
1.980609894 -0.4768614173 1.059061885
2.061946154 -0.4777824283 1.056851149
2.107623339 -0.4793460965 1.051411271
2.069947481 -0.4628846645 1.055902004
2.106140137 -0.4629064798 1.054799795
2.118196487 -0.4676296115 1.050358057
1.967939854 -0.4574130177 1.051139116
2.004940987 -0.4579007328 1.059303045
2.117008924 -0.4507933855 1.053804994
1.968065619 -0.4410452843 1.050058365
2.077949047 -0.4479869604 1.05495286
1.99605763 -0.4385717511 1.051704526
2.111664534 -0.4359283447 1.050802469
1.999683857 -0.4220551252 1.050745964
1.981116176 -0.410964936 1.054711103
2.109152317 -0.4171190858 1.054160833
2.119015694 -0.4062479436 1.055425406
1.981242776 -0.3944908082 1.053623438
2.01953721 -0.391418159 1.055444717
2.128526926 -0.3958349228 1.056638241
2.079637051 -0.3809602857 1.05373168
1.981369257 -0.3780166805 1.052535653
2.023186207 -0.374797523 1.054480195
2.124622107 -0.3745487928 1.059749007
1.994297385 -0.3638783395 1.058240891
2.087533951 -0.3662568927 1.052794933
2.122116089 -0.3655625582 1.057064533
2.135292768 -0.3626565933 1.058772326
2.026835203 -0.358176887 1.053515673
1.99442482 -0.3472978175 1.057146072
2.0304842 -0.341556251 1.052551031
2.132669449 -0.3486865759 1.051282763
2.074683905 -0.3303564787 1.054075599
6.644470215 -0.3379590511 1.059555292
2.034133196 -0.3249356151 1.051586628
2.023231506 -0.3191339076 1.05167985
2.082483768 -0.3158340454 1.053150415
2.023360491 -0.3023480773 1.050571561
2.037782192 -0.3083149791 1.050621986
2.090283871 -0.3013115525 1.052225232
2.006825209 -0.2826503813 1.059042215
2.098083735 -0.2867891192 1.051300049
2.097266436 -0.2536615133 1.058646321
2.105015993 -0.2392328382 1.057727218
2.112765551 -0.2248042226 1.056807995
2.037884951 -0.2030029446 1.051013708
2.020404577 -0.183739081 1.059150457
2.063355923 -0.1735942364 1.059468031
2.10751009 -0.1770213842 1.057111382
2.067004919 -0.1569736004 1.058503389
2.057733059 -0.1395278871 1.050909996
6.397339344 -0.1337037683 1.056943297
6.398094654 -0.03536077961 1.050450206
6.944381714 -0.009541273117 1.057444453
6.522294521 0.1644180119 1.057353616
6.522679806 0.2145321965 1.054044724
6.523064613 0.2646463811 1.05073595
6.913638115 2.786012888 1.053011894
7.374450207 3.075561762 1.058533669
7.21001339 3.512933254 1.057205677
1.818504333 -2.322185993 1.066016793
1.834111691 -2.304791927 1.064588308
1.815646887 -2.237935305 1.069159031
1.827392697 -2.224025488 1.064674616
1.830890536 -2.221043348 1.067640662
1.811739802 -2.208031893 1.067702532
1.828022361 -2.192133904 1.066237807
1.820989132 -2.146146059 1.064806104
1.810278773 -2.134851694 1.068404555
1.836058259 -2.129351854 1.063426971
1.841895103 -2.129193783 1.066737175
1.826283813 -2.119224548 1.066964865
1.854003191 -2.112573624 1.063646197
1.779533505 -2.101682901 1.060630322
1.842288852 -2.103597403 1.065525174
1.871863008 -2.095985413 1.063752294
1.85829401 -2.087970257 1.064085484
1.84255302 -2.035822392 1.064333558
1.801026821 -2.010267735 1.067781687
1.810709 -1.992240429 1.066633224
1.820391417 -1.974212885 1.065484762
1.853905797 -1.950361013 1.065546632
1.868499041 -1.934507608 1.062086582
1.900337934 -1.905025244 1.061369896
1.817877054 -1.88799715 1.065517426
1.827411771 -1.870244503 1.064386487
1.876053095 -1.879521966 1.068819284
1.890502453 -1.86341846 1.067496777
1.836946607 -1.852491856 1.063255548
1.884721041 -1.855514526 1.063184023
1.897592664 -1.840394378 1.062185884
1.901332021 -1.839969873 1.061392546
1.897803545 -1.780113101 1.066359162
1.896243811 -1.775381207 1.061909556
1.84344995 -1.75175786 1.062113285
1.924580693 -1.748268127 1.060101748
1.852840781 -1.734273314 1.060999393
1.937203765 -1.701708078 1.069560885
1.948784351 -1.680669188 1.067101955
1.802250385 -1.662019253 1.064576864
1.946512818 -1.65241003 1.061238647
1.872591257 -1.648668051 1.067656636
1.881910205 -1.631317377 1.066551208
1.826090455 -1.622418404 1.069084525
1.948250175 -1.628138542 1.068693638
2.263015985 -1.629839659 1.065707445
1.891228914 -1.613966942 1.0654459
1.962884307 -1.613849998 1.06737721
1.956711411 -1.604851127 1.066120505
1.817133665 -1.594228983 1.060642719
1.945036769 -1.571305752 1.06941855
1.952798128 -1.575104833 1.060284138
1.841078043 -1.554152727 1.065122843
1.94467473 -1.545660734 1.060067296
1.964886904 -1.531763196 1.065438032
1.864375114 -1.51271224 1.069098473
1.90613234 -1.50203681 1.063300014
1.955941677 -1.502188802 1.068750143
1.868146539 -1.49553442 1.068101406
1.987746716 -1.496455312 1.066274405
1.915314436 -1.484941006 1.062210917
1.970135212 -1.488330364 1.067473412
2.005362034 -1.486911654 1.061406612
1.871917963 -1.478356361 1.067104578
1.875689268 -1.461178541 1.06610775
1.924496412 -1.467845082 1.061121702
1.948055863 -1.461445451 1.067919731
1.879460573 -1.444000721 1.065110803
2.053604841 -1.163356304 1.065702438
1.988096714 -1.143618464 1.061244011
2.045591593 -1.147129774 1.062195063
1.996951103 -1.127132535 1.060193777
1.942798138 -1.115928173 1.066480279
1.917657256 -1.099169612 1.065896869
1.942922354 -1.099758148 1.06541276
1.974993587 -1.092667818 1.062514544
1.921378016 -1.082222104 1.064913273
2.053848743 -1.089442372 1.061501265
1.925098896 -1.065274596 1.063929796
2.036262989 -1.058435798 1.063162565
1.932540417 -1.031379342 1.061962724
1.943419218 -1.035078049 1.061142206
2.019244194 -1.028317094 1.064825058
1.93970108 -1.010289192 1.068169117
1.943543553 -1.018908024 1.060074568
1.990914702 -1.000541091 1.062542677
2.016173124 -0.9872890711 1.065849543
1.928217649 -0.9794769287 1.067114592
1.956897616 -0.9783449173 1.0631603
1.915425301 -0.9664114714 1.062200785
2.040367126 -0.9676178694 1.066284537
1.999289036 -0.9586240053 1.067127943
2.052300215 -0.9543944001 1.065095901
2.011616468 -0.9465875626 1.066019058
2.023944139 -0.9345511198 1.064910173
1.894494057 -0.9192984104 1.063042641
1.910035968 -0.908413589 1.068783402
1.974352241 -0.9062669873 1.069334388
1.913684964 -0.8917930126 1.06781888
1.982785702 -0.8905650377 1.068334103
2.0204041 -0.8955512643 1.065648794
2.032573938 -0.8836688995 1.064554214
1.91733408 -0.8751723766 1.066854239
1.991219044 -0.8748630881 1.067333698
1.920983076 -0.8585517406 1.065889835
2.016285419 -0.8572606444 1.066015482
