# .PCD v0.7 - Point Cloud Data file format
VERSION 0.7
FIELDS x y z
SIZE 4 4 4
TYPE F F F
COUNT 1 1 1
WIDTH 1237
HEIGHT 1
VIEWPOINT 0 0 0 1 0 0 0
POINTS 1237
DATA ascii
-2.177544832 0.1774957329 0.3460330963
-4.317074776 0.3526523113 -0.3789531589
-2.175891399 0.1777437627 0.424359262
-2.195631981 0.1797420532 -0.1154531315
-2.148090124 0.1762280613 0.4975917339
-2.128493547 0.1749938279 -0.03727834299
-7.934277058 0.65370965 2.133186817
-1.388020635 0.1160675287 -0.3732170761
-2.108288765 0.1766670048 0.03692929447
-1.592362761 0.133714512 -0.3689197302
-2.203179121 0.1853934228 0.1158718094
-1.897650123 0.1596837193 -0.3701694608
-9.753993034 0.8224924803 0.8563922644
-2.259679556 0.1909421831 -0.3591735661
-2.180848598 0.1854310036 0.3466588259
-4.31383276 0.3675505519 -0.3787788451
-2.171344995 0.1850046515 0.4235959649
-2.183050871 0.186385259 -0.1148250923
-2.1629951 0.1850536913 0.5011909604
-2.131854296 0.1827642471 -0.03734815121
-7.939644814 0.6820611358 2.135257006
-1.418378472 0.123842366 -0.3814992905
-2.093714237 0.1828077137 0.0366849564
-1.607416987 0.1406308711 -0.3725189567
-2.188591242 0.1918614507 0.1151391119
-1.955723643 0.1717911959 -0.3816179931
-9.532594681 0.8390240073 0.8372181058
-2.262900352 0.1995696425 -0.3597993255
-9.5766325 0.8445820808 1.180426598
-2.180187941 0.1930425167 0.3466588259
-4.310539246 0.3824294508 -0.3786045611
-2.162830591 0.192266494 0.4220695198
-2.17837429 0.1940314472 -0.1146157533
-2.166184425 0.193326205 0.5020907521
-2.131203413 0.1902042478 -0.03734815121
-7.941064835 0.7101178169 2.136292458
-1.321740985 0.1200553998 -0.3556173742
-2.097013474 0.1908428669 0.03675476834
-1.560314059 0.1422740519 -0.3617212772
-2.16798377 0.1980652064 0.1140923947
-1.931650877 0.1764740348 -0.3770385981
-9.485957146 0.8682962656 0.8333832026
-2.262189865 0.2074674815 -0.3597993255
-9.502307892 0.8731399179 1.171651959
-2.179465771 0.201031521 0.3466588259
-4.317043781 0.3989602625 -0.3793017864
-2.166055679 0.2001763731 0.4228327572
-2.169728994 0.2008972019 -0.1141970679
-2.169377089 0.2012470067 0.5029905438
-2.114562988 0.196534276 -0.0370689109
-7.938408375 0.7392185926 2.136292458
-1.405916214 0.1328980476 -0.3783934414
-2.088371038 0.1974089444 0.03661514819
-1.57532835 0.1491895914 -0.3653205037
-2.143419266 0.2033673823 0.1128363311
-1.946626663 0.1850385219 -0.380091548
-9.272468567 0.8830388188 0.8149061799
-2.322374105 0.2215735167 -0.3694982827
-9.28578186 0.8859397769 1.145328164
-2.176784277 0.2084503323 0.3463459313
-4.315624714 0.4140272439 -0.3793017864
-2.17312479 0.2088648826 0.424359262
-2.172954082 0.2092317194 -0.1144064143
-2.164745331 0.2088226378 0.5020907521
-2.109883308 0.2035303414 -0.03699910268
-7.943471432 0.7676659822 2.138362885
-1.436254978 0.1403197944 -0.3866756856
-2.083724499 0.20394364 0.03654533997
-1.590340614 0.1559341252 -0.3689197302
-2.152671337 0.2114504129 0.1133596972
-1.91477406 0.1880824715 -0.3739856482
-9.06740284 0.8922612667 0.797126472
-9.085245132 0.8972190022 1.120954394
-2.168218136 0.2148879468 0.3450944722
-4.296459198 0.4258138239 -0.3777329624
-2.180272341 0.2164673805 0.4258857071
-2.188185692 0.2176381946 -0.1152437925
-2.173774481 0.2165884823 0.504340291
-2.075370073 0.2071495801 -0.03640572354
-7.898591995 0.7897750735 2.12697506
-1.358875155 0.1375502497 -0.3659701347
-2.069073439 0.2098038793 0.03630100563
-1.589786649 0.1614845395 -0.3689197302
-8.931562424 0.9088093638 0.4705003202
-1.92973125 0.1963551044 -0.3770385981
-8.869984627 0.9041077495 0.7800439
-2.466275215 0.2518202066 -0.3926505744
-8.908276558 0.9111525416 1.099505305
-2.163524628 0.2220523208 0.3444687426
-4.290982723 0.4404029846 -0.3773843646
-2.165832758 0.2226706743 0.423214376
-2.1874125 0.2252751142 -0.1152437925
-2.184635878 0.2253749967 0.5070396662
-2.088557959 0.2158311307 -0.03665005416
-7.872728348 0.8149546981 2.120763302
-1.400656343 0.1467206031 -0.3773581684
-2.058384895 0.2159812003 0.03612648323
-1.620222211 0.1702921689 -0.3761181533
-2.159087658 0.2273101807 0.1137783751
-1.944653749 0.2047344297 -0.380091548
-8.664671898 0.913749218 0.7622640729
-8.707633972 0.9213552475 1.075131416
-2.164700508 0.2298111469 0.3447815776
-4.305189133 0.457811743 -0.3787788451
-2.163089991 0.2300219387 0.4228327572
-2.180655003 0.2322752029 -0.1149297729
-8.531880379 0.9102878571 1.980919003
-2.085803509 0.2229077965 -0.03661514819
-7.869835377 0.8424327374 2.120763302
-1.338650227 0.1451875865 -0.3607937694
-2.065570354 0.2240280211 0.03626609966
-1.538249493 0.1671073735 -0.357222259
-8.50406456 0.9253367186 0.448309809
-1.928276777 0.2101589143 -0.3770385981
-8.502815247 0.9282059073 0.7483192086
-2.464410305 0.2694608569 -0.3926505744
-8.510978699 0.9305981398 1.051245093
-2.181557894 0.239304617 0.3475974202
-4.297623158 0.472184211 -0.3782559037
-2.166135311 0.2383780777 0.4235959649
-2.167877436 0.2389527261 -0.1143017337
-8.346410751 0.921453476 1.938628078
-2.081037283 0.2297489345 -0.03654533997
-7.866847038 0.8698968291 2.120763302
-1.461005688 0.1636199057 -0.3939225972
-2.066722631 0.2318196446 0.03630100563
-1.576357841 0.1770951003 -0.3662202954
-8.357714653 0.9404222369 0.4407734573
-1.896316409 0.2133762836 -0.3709326982
-8.222343445 0.9266412258 0.7239156365
-2.463454485 0.2780622542 -0.3926505744
-8.381268501 0.9475164413 1.035645723
-8.296736717 0.940893054 1.322497129
-4.29792881 0.4874074161 -0.3784302175
-2.165290117 0.2459378988 0.4235959649
-2.176952362 0.24764736 -0.1148250923
-8.149522781 0.928520143 1.893637896
-2.084154844 0.2378277481 -0.03661514819
-1.391338468 0.1607370377 -0.3752876222
-2.065900803 0.239032492 0.03630100563
-1.602831244 0.1857374609 -0.3725189567
-8.100437164 0.940118432 0.4273754656
-1.950164437 0.2263316661 -0.3816179931
-8.139896393 0.9461356997 0.7169431448
-4.438379765 0.5174635053 0.5486558676
-3.050214767 0.3561584651 -0.377063781
-4.317968845 0.5049527287 -0.3803476691
-2.18001771 0.2553217411 0.4266489148
-2.184009314 0.2561756074 -0.1152437925
-2.067424059 0.2432321906 -0.03633590788
-7.57263422 0.8922594786 2.043117762
-1.344729781 0.1601110697 -0.3628643155
-2.049168825 0.2443487793 0.03602176905
-1.586693168 0.1894826889 -0.3689197302
-7.601483345 0.9077681899 0.4012074769
-1.949362636 0.2331372201 -0.3816179931
-7.547025204 0.9039366841 0.6649983525
-7.59002161 0.9117721319 0.9386377335
-7.505645752 0.9029669166 1.197349548
-4.337939262 0.5226439238 -0.3822650611
-2.171317101 0.2619886994 0.4251224697
-2.179136276 0.2633185387 -0.1150344461
-7.574060917 0.9165619612 1.761366725
-2.088443279 0.2527293861 -0.03671986237
-7.569633961 0.9173647761 2.043117762
-1.401687384 0.1718570739 -0.3783934414
-2.038423061 0.249925524 0.03584724292
-1.601529717 0.1966433078 -0.3725189567
-7.554656506 0.9289326668 0.3989046812
-1.94074297 0.2389806509 -0.380091548
-7.480545998 0.9224722981 0.6594203711
-7.586956501 0.9369368553 0.9386377335
-7.502448559 0.9291612506 1.197349548
-4.345974922 0.5390082002 -0.3831366599
-2.170436382 0.2691876888 0.4251224697
-2.176269054 0.2702972889 -0.1149297729
-7.501361847 0.9330145717 1.745170236
-2.087548494 0.2600174248 -0.03671986237
-7.470534801 0.9318283796 2.017235756
-1.401109815 0.1765043437 -0.3783934414
-2.043490171 0.2577908039 0.03595196083
-1.569899559 0.198324278 -0.3653205037
-7.44833231 0.9422630668 0.3934617341
-1.974998951 0.2498503774 -0.3869606555
-7.430007458 0.9412642121 0.6552368402
-7.469423294 0.9489048719 0.9245009422
-7.499159813 0.9553424716 1.197349548
-4.354045391 0.5546760559 -0.384008199
-2.179220676 0.2780045569 0.4270305634
-2.159462929 0.2758675814 -0.1140923947
-7.409142494 0.947817266 1.724474788
-2.072743893 0.2655246854 -0.03647553176
-7.440410614 0.9544587135 2.009988785
-1.411980271 0.1828826368 -0.3814992905
-2.042577982 0.2649219334 0.03595196083
-1.584657788 0.2058109939 -0.3689197302
-7.415289879 0.9643916488 0.3918916881
-1.946858644 0.2531976998 -0.3816179931
-7.42667675 0.967192471 0.6552368402
-7.410949707 0.9677768946 0.9176762104
-7.411557198 0.9704855084 1.183896184
-4.363935947 0.5714232922 -0.3850540519
-2.186023235 0.2866312563 0.4285570085
-7.323013306 0.9614914656 -0.3870767653
-7.334300518 0.9642755389 1.707828403
-2.065856457 0.2719753087 -0.03637081385
-7.333609104 0.9667887092 1.982036352
-1.399843335 0.1862816215 -0.3783934414
-2.047586918 0.2728426456 0.03605667129
-1.583929777 0.2113412768 -0.3689197302
-7.285178661 0.9733440876 0.3851926625
-1.907043695 0.2547926307 -0.3739856482
-7.275146484 0.9732961655 0.6421635151
-7.289478779 0.9778035283 0.9030519128
-7.261293411 0.9766030312 1.160431027
-4.352041245 0.5853250623 -0.384182483
-2.192792416 0.2953078449 0.4300835133
-7.199566841 0.9721408486 1.677235007
-2.058949709 0.2783806026 -0.03626609966
-7.169380665 0.9706113338 1.938554645
-1.345590711 0.1838445067 -0.3638995886
-2.034734964 0.2783622146 0.03584724292
-1.594766617 0.2184558362 -0.3716191351
-7.155097961 0.9813985229 0.3784936666
-1.96449399 0.2694514394 -0.3854341805
-7.117743015 0.9775406122 0.6285672188
-7.124764919 0.9810388088 0.8830653429
-7.122819424 0.9833043814 1.13884306
-4.346024513 0.599968195 -0.3838338852
-2.182024479 0.3016162813 0.4281754196
-7.033985615 0.9747940898 1.639443398
-2.057965279 0.2855660319 -0.03626609966
-7.035833359 0.9775532484 1.90335536
-1.413813949 0.1981954128 -0.3825345635
-2.041671991 0.2865744531 0.03598686308
-1.566977501 0.2202243358 -0.3653205037
-7.005273342 0.9857737422 0.3707479537
-1.94410038 0.2735714912 -0.3816179931
-6.995913982 0.9857001901 0.618108511
-2.454790592 0.3463090956 -0.3926505744
-6.975844383 0.985357523 0.8650286794
-2.21794939 0.3140811622 0.3547933996
-4.351794243 0.6162524223 -0.3845311403
-2.175126791 0.308404386 0.4270305634
-6.91092062 0.9823384881 1.611549377
-2.066854715 0.29415676 -0.03644062579
-6.883200645 0.9808494449 1.862979531
-1.386342764 0.1992808431 -0.3752876222
-2.054514408 0.2956941426 0.03623119742
-1.60863328 0.2318076491 -0.3752183616
-6.859461308 0.9896841645 0.3632115722
-1.919816136 0.2769913673 -0.3770385981
-6.838620186 0.9878971577 0.6045122147
-6.834840298 0.9897850156 0.847966969
-2.220749378 0.3223890364 0.3554191291
-4.363418579 0.6334431171 -0.385751307
-2.183751106 0.317406565 0.428938657
-6.778247356 0.9876308441 1.581405878
-2.071751356 0.3022356927 -0.03654533997
-6.761217594 0.9875596166 1.830886006
-1.420040727 0.2091866881 -0.3846051097
-2.055447817 0.30315575 0.03626609966
-1.580824614 0.233435601 -0.3689197302
-6.694123268 0.9885009527 0.3546284735
-1.905242562 0.28168118 -0.3743672669
-6.736584663 0.9971755147 0.5957966447
-2.452313423 0.3634377122 -0.3926505744
-6.699782848 0.994117856 0.8316364884
-2.215759993 0.3291710615 0.3547933996
-4.359210491 0.6483764052 -0.3855769932
-2.186513424 0.3256062865 0.4297018647
-6.614786625 0.9874044061 1.544064045
-2.070737839 0.3091038167 -0.03654533997
-6.643267632 0.9928427339 1.799827695
-1.358174562 0.2049198449 -0.3680406809
-2.064317703 0.3114619255 0.03644062579
-1.595456839 0.2410051227 -0.3725189567
-6.582017422 0.9954356551 0.3488715291
-1.880954027 0.2848035395 -0.369787842
-6.591231346 0.9991824627 0.5832462311
-2.380784273 0.3609094918 -0.3813872933
-6.596356392 1.001137018 0.819205761
-2.208738804 0.3360117376 0.3538548052
-4.354951382 0.6632890701 -0.3854027092
-2.200948715 0.3352196515 0.4327548146
-6.511301994 0.9940416813 1.520669103
-2.063715935 0.3154243231 -0.03644062579
-6.494630337 0.9938179851 1.760487318
-1.346032023 0.2076550424 -0.3649348617
-2.065194368 0.3189706504 0.03647553176
-1.563792229 0.2418081909 -0.3653205037
-6.458278179 0.9986394644 0.3424865305
-1.918802142 0.2970465124 -0.3774202168
-6.457935333 1.000894547 0.5717417002
-6.463357925 1.004046798 0.8031190038
-2.213468075 0.344245106 0.3547933996
-4.344852448 0.6765009761 -0.3847054243
-2.197825193 0.3425985575 0.4323731959
-6.390344143 0.9984146357 1.493225098
-6.395427704 0.9992089272 -0.112986885
-6.371053696 0.9965413213 1.727875948
-1.39491272 0.2201837599 -0.3783934414
-6.352370262 1.002707005 0.1122538745
-1.59762907 0.2524678409 -0.3734187484
-6.356116772 1.005572438 0.3372529447
-1.902240992 0.3012852073 -0.3743672669
-6.336334229 1.004709721 0.5612829924
-6.33647871 1.005866289 0.7877634764
-2.212253094 0.3519695401 0.3547933996
-4.354269981 0.6935447454 -0.385751307
-2.194738388 0.349576205 0.431991607
-6.307547569 1.005788565 -0.3347408175
-6.275383949 1.001782775 1.46713078
-6.316864491 1.009536743 -0.1116604954
-6.272157192 1.003512859 1.701994061
-1.378917336 0.2223477066 -0.3742523491
-6.259995461 1.010534406 0.1106831655
-1.539024591 0.248716265 -0.359921664
-6.232299328 1.008295655 0.3308679461
-1.920611858 0.3107271492 -0.3781834543
-6.25036335 1.012337565 0.5539618731
-2.347692966 0.3806636333 -0.376694262
-6.215362072 1.00889504 0.7731391788
-2.214910507 0.360324055 0.3554191291
-4.359812737 0.7092590928 -0.3864485323
-2.203193426 0.3588126004 0.4338997006
-6.146299839 1.002088904 -0.3263670504
-6.164144516 1.006102681 1.441936255
-6.196864128 1.012555003 -0.1096011102
-6.158038139 1.007312894 1.671971202
-1.389569521 0.2290451825 -0.3773581684
-6.141994953 1.013496876 0.1086586863
-1.57660079 0.2604387999 -0.3689197302
-6.130216122 1.013751388 0.3256343305
-1.900146127 0.3142264187 -0.3743672669
-6.134749889 1.015601039 0.5440261364
-6.106052876 1.013040185 0.7599772811
-2.211690664 0.3677293956 0.3551062942
-4.359276295 0.7248002887 -0.3866228759
-2.203864098 0.3668233454 0.4342812896
-6.063960075 1.010406852 -0.3221801817
-6.052952766 1.009659886 1.416741729
-6.086783409 1.016393423 -0.1077162549
-6.07636261 1.015743375 1.650747895
-1.362091184 0.2294025123 -0.3701112568
-6.051658154 1.020301104 0.1071228758
-1.575682044 0.265940994 -0.3689197302
-6.016534328 1.01546061 0.3197727203
-1.945497274 0.3287069798 -0.3835260868
-6.019191742 1.018068671 0.5340903997
-6.014406681 1.019420147 0.7490090728
-2.202668905 0.3737393618 0.3538548052
-4.362612247 0.7410135865 -0.3871458173
-2.214183092 0.3764887154 0.436571002
-5.977701187 1.017490625 -0.3177839816
-5.970628262 1.017360449 1.39829576
-5.969044685 1.017090559 -0.1056917757
-5.95870018 1.016398072 1.619689703
-1.342243314 0.2308805287 -0.3649348617
-5.941820145 1.02205801 0.105238013
-1.544063926 0.2658733428 -0.3617212772
-5.918478012 1.020171523 0.314748466
-1.944338083 0.335495621 -0.3835260868
-5.903692722 1.019744992 0.5241546631
-5.917101383 1.023124576 0.7373095751
-2.19551158 0.3804146349 0.3529161811
-4.342330933 0.7531730533 -0.3855769932
-2.199381828 0.3814806044 0.4338997006
-5.852290154 1.016124606 -0.3112943172
-5.863544464 1.019134402 1.374001026
-5.884684086 1.023866773 -0.1042606831
-5.869472027 1.022273898 1.596395969
-1.387137294 0.2433415949 -0.3773581684
-5.835799217 1.024807692 0.1034229621
-1.543126345 0.2712619305 -0.3617212772
-5.828509808 1.024577737 0.3101429045
-1.935480714 0.3405805826 -0.3819996417
-5.823753357 1.025835752 0.5173564553
-5.827480316 1.028589606 0.7265850902
-2.211745262 0.3907859921 0.3557320237
-4.349619389 0.7693037987 -0.3864485323
-2.199970007 0.3894973695 0.4342812896
-5.758242607 1.020515561 -0.3064793944
-5.790875435 1.027341366 1.357804537
-5.776902676 1.024862409 -0.1024107262
-5.757630825 1.022480011 1.566890597
-1.371066451 0.2454586029 -0.3732170761
-5.741822243 1.027944207 0.1018173397
-1.530709386 0.274314791 -0.3590218723
-5.722672939 1.026577592 0.3046999872
-1.876309633 0.336925 -0.3705511093
-5.731893063 1.030298114 0.5095124841
-5.710721493 1.027519941 0.7124482393
-2.21036768 0.3985046446 0.3557320237
-4.358671665 0.7866042852 -0.387494415
-2.198666334 0.3967906535 0.4342812896
-5.670312881 1.024336457 -0.3019784987
-5.685801506 1.028160572 1.333959699
-5.688676834 1.029705882 -0.1009098142
-5.693197727 1.031548858 1.550326109
-1.431014538 0.2613495588 -0.3897815049
-5.659332275 1.034597754 0.1004211456
-1.556530356 0.2848342657 -0.3653205037
-5.626536846 1.030632019 0.2997803688
-1.894433498 0.3470098674 -0.3743672669
-5.634196281 1.033051372 0.5011455417
-5.624915123 1.033379197 0.7022112012
-2.197235823 0.4044572115 0.3538548052
-4.350020885 0.8007321358 -0.3869714737
-2.206850767 0.4066258073 0.4361893833
-5.601704121 1.033159256 -0.2985243201
-5.590009689 1.03200984 1.312364459
-5.586544514 1.032379746 -0.09916457534
-5.59629631 1.035191894 1.524961829
-1.373117924 0.2557319105 -0.3742523491
-5.561326981 1.036755681 0.0987457186
-1.570852041 0.2931256294 -0.3689197302
-5.54240942 1.035230994 0.2954888344
-1.89321053 0.3536205888 -0.3743672669
-5.536549568 1.035136461 0.4927785695
-2.434851408 0.4556697607 -0.3923376799
-5.539325237 1.037657976 0.6919742227
-2.184161901 0.409938246 0.3519775867
-4.356990814 0.8177494407 -0.3878430426
-5.53766346 1.040348053 1.095243692
-5.52740097 1.039417267 -0.2947561443
-5.48295784 1.032050729 1.288069725
-5.496441841 1.035583496 -0.09762876481
-5.507221222 1.038608313 1.501668096
-1.338053823 0.25403741 -0.3649348617
-5.473198414 1.040108681 0.09724480659
-1.554503918 0.2956935465 -0.3653205037
-5.460463524 1.038674593 0.2913019657
-1.942108393 0.3697743416 -0.3842893541
-5.442873001 1.037298799 0.4847602248
-5.465474606 1.043583274 0.6831996441
-2.186671019 0.4179207087 0.3526033461
-4.346282005 0.8314569592 -0.3871458173
-5.406735897 1.035301805 1.070056915
-5.437429905 1.042163014 -0.290150553
-5.410604477 1.037021637 1.271873236
-5.402639389 1.036473751 -0.09602314234
-5.406990528 1.038285732 1.475268602
-1.397899747 0.2702053189 -0.3814992905
-5.391188145 1.04305923 0.09584861249
-1.584125996 0.3067749441 -0.3725189567
-5.374633789 1.040828228 0.2869057357
-1.913888097 0.3709822893 -0.3789466918
-5.372902393 1.042440057 0.4788336456
-5.364552498 1.042763114 0.67101264
-2.189151049 0.4259242713 0.3532290757
-4.343501091 0.8458632827 -0.3871458173
-5.341609001 1.041206121 1.057845116
-5.359453201 1.045655131 -0.2861730456
-5.321065903 1.038165569 1.251627684
-5.338331223 1.042502642 -0.09494108707
-5.321990967 1.04027462 1.453010201
-1.385622859 0.2726016343 -0.3783934414
-5.305294991 1.044704676 0.09438262135
-1.537212968 0.3029822111 -0.3617212772
-5.296506405 1.044893265 0.2829281986
-1.864494205 0.367826879 -0.3694062233
-5.287320614 1.044041038 0.4715125561
-5.277328491 1.043982029 0.6605318785
-5.442666054 1.077676773 -0.6812496781
-2.199277163 0.4358669519 0.3551062942
-4.346535206 0.8614243865 -0.3876687586
-5.249543667 1.041341782 1.040290713
-5.2501688 1.042418242 -0.2805207372
-5.229486942 1.039260387 1.230932117
-5.258170605 1.045914769 -0.09357980639
-5.259592533 1.047151923 1.43696332
-1.426335216 0.2857867479 -0.3897815049
-5.231032372 1.049060822 0.09312604368
-1.55143106 0.3114144206 -0.3653205037
-5.202753067 1.04527998 0.2781133056
-1.845875621 0.3708530366 -0.3659716845
-5.205512524 1.046778321 0.4645401239
-5.217218876 1.051028371 0.6534634829
-5.244277954 1.057432055 -0.6568758488
-2.193869591 0.4427596629 0.3544805348
-4.351314068 0.8781680465 -0.388365984
-5.184296608 1.047220826 1.028078914
-5.191684246 1.049656272 -0.277589947
-5.158976078 1.043980479 1.215185642
-5.176090717 1.048384309 -0.09218360484
-5.185852051 1.051303506 1.417810798
-1.368543148 0.2791793942 -0.3742523491
-5.152885914 1.052112699 0.09179966152
-1.550334454 0.3168284297 -0.3653205037
-5.132726192 1.048930883 0.2745544612
-1.925354123 0.3938175142 -0.3819996417
-5.129606247 1.050157309 0.4580905437
-5.139622688 1.05407846 0.6442013979
-5.240555286 1.075730443 -0.6568758488
-2.180779219 0.4476492405 0.3526033461
-4.330657005 0.889744103 -0.3867971897
-5.117149353 1.052261591 1.015485525
-5.121475697 1.054081678 -0.2740310729
-5.075136662 1.045468807 1.196289778
-5.096201897 1.049808264 -0.09082232416
-5.093410492 1.050159931 1.393481851
-1.375126243 0.2855257988 -0.3763229251
-5.069093227 1.052526593 0.09036856145
-1.564539194 0.3251395822 -0.3689197302
-5.066460609 1.053825855 0.2712049484
-1.9239676 0.4005359113 -0.3819996417
-5.047889233 1.051800132 0.4511181116
-5.070027351 1.057337523 0.6359143257
-5.139798641 1.072822809 -0.6446889043
-2.183070421 0.4560673535 0.3532290757
-4.343126297 0.9081177115 -0.3881916404
-5.034842491 1.052750826 0.9998391867
-5.03584671 1.053876877 -0.2696348727
-5.020143986 1.0515064 1.184142351
-5.014220238 1.05117929 -0.08942613006
-5.019758701 1.053253651 1.374329209
-1.370391369 0.2892863154 -0.3752876222
-4.994954586 1.055333376 0.08911199123
-1.563394666 0.3305992484 -0.3689197302
-4.994362354 1.057029486 0.2675414383
-1.94183588 0.4109789431 -0.3858157992
-4.983950615 1.055734754 0.4457144737
-4.976980686 1.056073546 0.6247023344
-5.077768803 1.078386068 -0.6373766661
-2.193058491 0.4661492109 0.3551062942
-4.334244728 0.9212726355 -0.3876687586
-4.965847969 1.056428671 0.9868642092
-4.977439404 1.059802651 -0.2667040527
-4.90970993 1.046278596 1.158947825
-4.94402647 1.054492354 -0.08823936433
-4.948037148 1.056251884 1.355694294
-1.380705953 0.2965018153 -0.3783934414
-4.924768448 1.058474898 0.0879252255
-1.581282735 0.3401524127 -0.3734187484
-4.918398857 1.058903217 0.2636685669
-1.898165464 0.4086641669 -0.3774202168
-4.923752308 1.060953736 0.4406594336
-4.905349255 1.058781385 0.6161714792
-4.957553387 1.070955873 -0.6227523685
-2.199141026 0.4754708409 0.3563577533
-4.332950115 0.9368163943 -0.3878430426
-4.898808479 1.060054183 0.9742708206
-4.901485443 1.061530232 -0.2628312111
-4.822228909 1.04524529 1.139152169
-4.899276733 1.062841177 -0.08750636876
-4.891459465 1.062040329 1.341200352
-1.430621505 0.3124487102 -0.3923696876
-4.870250702 1.06455791 0.08701769263
-1.576278448 0.3448371589 -0.3725189567
-4.838582039 1.059404135 0.259586364
-1.896727324 0.415287137 -0.3774202168
-4.849954605 1.062782407 0.434384197
-4.845394611 1.063555837 0.609103024
-4.883986473 1.072919965 -0.6139777899
-2.193609238 0.4822960794 0.3557320237
-4.331599236 0.9523634911 -0.3880173564
-4.833721638 1.063646674 0.962059021
-4.839235306 1.065745354 -0.2596910596
-4.80142355 1.058296561 1.135102987
-4.81937933 1.06313765 -0.08614508063
-4.810379505 1.062031388 1.319977164
-1.359743357 0.3019455373 -0.3732170761
-4.809895039 1.068970799 0.0860054642
-1.559846997 0.3469524086 -0.3689197302
-4.780267239 1.06413722 0.256655544
-1.918262243 0.4270251095 -0.3819996417
-4.772316933 1.063241482 0.4277603924
-2.32134676 0.5176063776 -0.376694262
-4.789341927 1.068789244 0.6025220752
-4.833714485 1.079577208 -0.6081280708
-2.184201241 0.4882266819 0.3544805348
-4.314638138 0.9644355774 -0.3867971897
-4.770586014 1.067226171 0.9502288103
-4.757525444 1.065176249 -0.2555041611
-4.740652084 1.062267423 1.121605873
-4.745395184 1.064199924 -0.08488851041
-4.736899376 1.063162923 1.300824523
-1.324761033 0.2990338206 -0.3638995886
-4.732013702 1.069009304 0.08467907459
-1.543420315 0.3489568532 -0.3653205037
-4.710291862 1.065830231 0.2530967295
-1.8937819 0.4285191 -0.3774202168
-4.690848351 1.062291265 0.4207879007
-2.319525957 0.5257056952 -0.376694262
-4.708145618 1.067936182 0.5927725434
-4.752482891 1.07886529 -0.5983785391
-2.188262463 0.4971609712 0.3554191291
-4.295701981 0.9759594202 -0.3854027092
-4.678769588 1.063848972 0.9326743484
-4.691458225 1.067595243 -0.2521546781
-4.655211926 1.060201526 1.102260113
-4.669512749 1.064315557 -0.08359703422
-4.650287151 1.06078732 1.278048515
-1.376431465 0.3157507181 -0.3783934414
-4.595722198 1.055092931 0.08230555058
-1.557386756 0.3578337729 -0.3689197302
-4.562503815 1.049144387 0.2453509867
-1.89227438 0.4351270795 -0.3774202168
-4.53954792 1.044698596 0.4075402319
-4.518689156 1.041560411 0.5693736672
-4.702265739 1.084738016 -0.59252882
-2.186513901 0.5047964454 0.3554191291
-4.303916931 0.9936374426 -0.3864485323
-4.43018198 1.023602486 0.8838273287
-4.520355225 1.045267105 -0.2431528866
-4.41226387 1.021084905 1.045572519
-4.484592915 1.03864789 -0.08035087585
-4.415075302 1.023359179 1.214379072
-1.386609674 0.3231842518 -0.3814992905
-4.405058861 1.027520418 0.0789546892
-1.525764704 0.356179744 -0.3617212772
-4.385719776 1.024623513 0.2360351831
-1.925156116 0.4497689009 -0.3842893541
-4.394248486 1.027424812 0.3948155046
-2.315799236 0.5418868065 -0.376694262
-4.385528564 1.027000546 0.5530431271
-4.416272163 1.035014272 -0.5569429398
-2.19627738 0.515132308 0.3572963774
-4.306241512 1.010019898 -0.3869714737
-4.397912502 1.032329917 0.8781030178
-4.384464264 1.029981613 -0.2360351831
-4.38970232 1.032020569 1.041073442
-4.393345833 1.033685207 -0.0787801668
-4.387030125 1.033008337 1.207649708
-1.362914443 0.3226815462 -0.3752876222
-4.395607948 1.041508675 0.07884997129
-1.539681435 0.3651002347 -0.3653205037
-4.386002541 1.040848732 0.2362445444
-1.873909116 0.4447001219 -0.3743672669
-4.398389339 1.044600129 0.3955127299
-4.520164013 1.074353456 -0.7358677983
-4.389641285 1.0441401 0.5540180802
-4.387527943 1.04444766 -0.5537743568
-2.194466114 0.5227951407 0.3572963774
-4.337576389 1.033355594 -0.390109092
-4.405740738 1.050407171 0.8803927898
-4.400269508 1.049915433 -0.2370819002
-4.395550251 1.049599171 1.043322921
-4.403325558 1.05226922 -0.07902450114
-4.404065132 1.053258538 1.21334374
-1.358023286 0.3265338242 -0.3742523491
-4.397778511 1.05824852 0.0789546892
-1.553554296 0.3741225004 -0.3689197302
-4.397875786 1.059897065 0.2370819002
-1.857076526 0.4475592375 -0.371314317
-4.390842915 1.059011817 0.3951641321
-4.408853054 1.064169884 -0.7183471322
-4.403336048 1.063652635 0.55621171
-4.387714863 1.060688615 -0.5542618632
-2.188787937 0.5295231938 0.3566706479
-4.314395428 1.044559479 -0.388365984
-4.405863285 1.066704869 0.8811559677
-4.396577835 1.06526792 -0.2370819002
-4.384284496 1.063099384 1.041523337
-4.391851425 1.065747023 -0.07888487726
-4.394730091 1.06725657 1.2117908
-1.315530896 0.3214216232 -0.3628643155
-4.386287689 1.071694851 0.07881507277
-1.552238941 0.3795431852 -0.3689197302
-4.384449005 1.072867513 0.2365585268
-1.885934234 0.4618338645 -0.3774202168
-4.381125927 1.073675275 0.3946412206
-4.385737896 1.075616956 -0.7152184248
-4.399596691 1.079015732 0.55621171
-4.385912895 1.076471448 -0.554505527
-2.19459939 0.5390455723 0.357922107
-4.233331203 1.040588617 -0.3813935518
-4.384766579 1.078624368 0.8777214289
-4.382946968 1.078989029 -0.2365585268
-4.369005203 1.076364636 1.038823962
-4.368688583 1.076286554 -0.07853582501
-4.353464127 1.073341608 1.201438069
-1.366902113 0.3390336633 -0.3773581684
-4.364862442 1.083428502 0.07850092649
-1.543272257 0.3833507299 -0.3671201169
-4.361293793 1.083350778 0.2355118096
-1.884310603 0.4684142172 -0.3774202168
-4.354149818 1.083189964 0.3925494552
-4.389624119 1.092828512 -0.7164699435
-4.357088089 1.085535884 0.5513369441
-4.370571613 1.088895202 -0.5530431271
-2.198454618 0.5481360555 0.3588607013
-4.179411888 1.042818785 -0.3768614233
-4.329545498 1.081081748 0.8674176931
-4.355902195 1.088470578 -0.235302493
-4.33327198 1.082815647 1.031175613
-4.328046322 1.082312346 -0.07787264138
-4.306587696 1.077745914 1.189532399
-1.279589891 0.3218856454 -0.353546828
-4.320523262 1.087644577 0.07776792347
-1.5268749 0.3846578598 -0.3635208905
-4.299574852 1.083170176 0.2323716581
-1.909398317 0.4813794792 -0.3827628493
-4.300305843 1.084949613 0.3880173564
-4.382145882 1.106412053 -0.715844214
-4.284178257 1.082472444 0.5425623655
-4.322670937 1.092198253 -0.5474371314
-2.196624756 0.5554234982 0.3588607013
-4.16434145 1.053740025 -0.3758155704
-4.270744801 1.081457376 0.8563508391
-4.276762009 1.083775282 -0.2312202752
-4.257874489 1.078989029 1.014079332
-4.285666466 1.086827874 -0.07717454433
-4.259922504 1.081090569 1.177626729
-1.357135773 0.3461818993 -0.3752876222
-4.258765697 1.087128162 0.07672078162
-1.525590897 0.3897191286 -0.3635208905
-4.237716675 1.083331823 0.2292315066
-1.881162405 0.4809012115 -0.3774202168
-4.246498585 1.086365342 0.3834852576
-4.236336231 1.085342169 0.5369563699
-4.230378628 1.084601521 -0.5362251401
-2.192759275 0.5625968575 0.3585478365
-4.137665749 1.061602116 -0.373723805
-4.223398685 1.084384322 0.847573638
-4.236390591 1.088507056 -0.2292315066
-4.199348927 1.079771876 1.001032233
-4.217938423 1.085336685 -0.07602268457
-4.205610275 1.082947969 1.163650513
-1.344697714 0.3480126262 -0.372181803
-4.20848465 1.089954734 0.07588306069
-1.531766891 0.3969977498 -0.3653205037
-4.19137764 1.087085605 0.2269287407
-1.837664127 0.4766209126 -0.3690246344
-4.188683033 1.087167978 0.3786045611
-4.305683136 1.118337274 -0.7045809031
-4.19794035 1.091133595 0.5325691104
-4.19006443 1.089868307 -0.5315940976
-2.177400351 0.5667644739 0.3563577533
-4.097300053 1.066503048 -0.3704118729
-4.173990726 1.087242007 0.8384147286
-4.18231535 1.090190887 -0.226510033
-4.159727097 1.085078239 0.9924840331
-4.163817883 1.086920381 -0.07511515915
-4.147600174 1.083461165 1.148638964
-1.354685903 0.3556477129 -0.3752876222
-4.156302929 1.091936827 0.07501044869
-1.560527086 0.4102697968 -0.3725189567
-4.141200542 1.08951354 0.2244165987
-1.87586081 0.4935225248 -0.3770385981
-4.134767532 1.088593721 0.3740724623
-4.206243515 1.108195782 -0.6889374852
-4.144198895 1.092622519 0.526231885
-4.151685238 1.095372558 -0.5272068381
-2.186868429 0.5773867369 0.3582349718
-4.047319412 1.068591356 -0.3662284315
-4.122717381 1.089269042 0.8288743496
-4.137935162 1.094062209 -0.2243119329
-4.118236065 1.089621782 0.9834859967
-4.111670971 1.088653684 -0.0742425397
-4.104577065 1.087541938 1.137768626
-1.375838041 0.3663391769 -0.3814992905
-4.094497681 1.090991616 0.07396329939
-1.544021845 0.4116980433 -0.3689197302
-4.092987537 1.092120647 0.2220091373
-1.874126434 0.5000680089 -0.3770385981
-4.088593483 1.091711402 0.3702375889
-2.324460506 0.6210979223 -0.3810743988
-4.080909729 1.091186881 0.5186759233
-4.090307713 1.094463587 -0.5198946595
-2.196288586 0.5880824327 0.3601121604
-4.014696121 1.074982762 -0.3636137843
-4.065792084 1.089425802 0.8181890249
-4.082005501 1.094532847 -0.2214857936
-4.071117401 1.092374921 0.9731382728
-4.078876495 1.095220923 -0.07371896505
-4.054113865 1.089330554 1.124827623
-1.333519459 0.3600607216 -0.3701112568
-4.052055359 1.094845653 0.07326520979
-1.527525783 0.4130160809 -0.3653205037
-4.040952682 1.093359351 0.2193923593
-1.872369647 0.5066064596 -0.3770385981
-4.034755707 1.09243834 0.3657054901
-2.339437962 0.633857429 -0.3838902414
-4.025346279 1.091398835 0.5120950341
-4.042397976 1.096779466 -0.5142886639
-2.198034763 0.596781075 0.36073789
-3.983999729 1.081682563 -0.3611733913
-4.018388748 1.091772437 0.8094117641
-4.020340919 1.093055129 -0.2183456421
-4.008987904 1.090720892 0.9591913223
-4.024863243 1.095794439 -0.07281144708
-4.007416725 1.091794968 1.112921953
-1.403059483 0.3840967715 -0.3897815049
-4.00385046 1.09683156 0.07246239483
-1.526074767 0.41834566 -0.3653205037
-3.98703289 1.093720794 0.2166708857
-1.874376416 0.514177978 -0.3778018355
-3.996334553 1.097022414 0.3625679016
-2.295305252 0.6305084825 -0.377007097
-3.98131609 1.094394088 0.5069765449
-3.977297068 1.094036102 -0.5064890385
-2.186415434 0.6018288732 0.3591735661
-3.920650721 1.079191446 -0.3557697535
-3.986162424 1.097971439 0.8036875725
-3.972215414 1.094875693 -0.2159381807
-3.96006918 1.09227252 0.9483936429
-3.967039824 1.094939113 -0.07183410227
-3.970062971 1.096520185 1.103604555
-1.360757232 0.3776270747 -0.3783934414
-3.965314865 1.101168752 0.07183410227
-1.524605155 0.4236701429 -0.3653205037
-3.933160305 1.093719244 0.2139494121
-1.830957532 0.5091461539 -0.3694062233
-3.938735485 1.096011162 0.3576871455
-4.024801254 1.120716095 -0.6617178321
-3.9430511 1.098694086 0.5025892258
-2.182399035 0.6089259386 0.3588607013
-3.884235382 1.083766818 -0.3528064489
-3.946377754 1.101847887 0.7964367867
-3.943362474 1.101749063 -0.2145774513
-3.929957867 1.098742247 0.9420950413
-3.924678802 1.098004818 -0.07113601267
-3.917842627 1.096830726 1.090145946
-1.340834022 0.3771435916 -0.3732170761
-3.913324118 1.101459861 0.07096148282
-1.538123012 0.4332159758 -0.3689197302
-3.898561001 1.098772287 0.2122746557
-1.908533931 0.5379021168 -0.3854341805
-3.890781403 1.097313643 0.3536779881
-4.0931077 1.155146718 -0.6736068726
-3.897164106 1.100581408 0.4972269833
-3.916074514 1.106660843 -0.4996643662
-2.191664934 0.6197653413 0.36073789
-3.836333036 1.084849238 -0.3487972915
-3.895280123 1.102253795 0.7868962884
-3.89913702 1.104079247 -0.2123793215
-3.866100788 1.095453501 0.9276981354
-3.876573324 1.099152803 -0.07033319771
-3.858235598 1.094679832 1.07461679
-1.354372144 0.3860583305 -0.3773581684
-3.865226507 1.102497697 0.07015866786
-1.525358081 0.435372889 -0.3662202954
-3.867815018 1.104696035 0.2108092606
-1.850011587 0.5283862948 -0.3739856482
-3.850529194 1.100485802 0.350366056
-3.937112093 1.125973582 -0.6485773921
-3.845586061 1.100525141 0.4911335111
-2.952270269 0.8454346061 -0.377063781
-2.191387177 0.6279562116 0.3610507846
-3.786365747 1.085722685 -0.3446137905
-3.840454578 1.101232409 0.7765926719
-3.854943752 1.106115222 -0.2101812214
-3.82291913 1.097648382 0.9182502031
-3.849649668 1.106050611 -0.06991434097
-3.830254316 1.101201773 1.067887425
-1.35665977 0.3920924962 -0.3783934414
-3.821012497 1.104322791 0.06942567229
-1.508852959 0.4363636672 -0.3626210988
-3.804460049 1.100978971 0.2075644135
-1.866920352 0.5406237841 -0.3778018355
-3.808196783 1.103500128 0.3468798697
-2.259601116 0.6551920176 -0.3726269603
-3.801683426 1.10233283 0.486014992
-2.92261076 0.8479906321 -0.3736514449
-2.187284708 0.6350509524 0.36073789
-3.746200562 1.088371754 -0.3413018882
-3.793033123 1.102695704 0.7678154111
-3.797166348 1.104616046 -0.2072504163
-3.781448841 1.100759506 0.9092521667
-3.813125134 1.109980345 -0.06932095438
-3.793000937 1.104840517 1.058569908
-1.351575017 0.3957401216 -0.3773581684
-3.793910742 1.111574173 0.06900681555
-1.518463373 0.4451808333 -0.3653205037
-3.750762701 1.099642992 0.2048429549
-1.846183181 0.5416107178 -0.3739856482
-3.771822214 1.107247114 0.3439165354
-3.891047955 1.142984271 -0.6423200369
-2.188296318 0.6432201266 0.2800557613
-2.166103601 0.6371082067 0.3576092124
-3.704151869 1.090191126 -0.3378156424
-3.757145405 1.106499553 0.7613279223
-3.754971027 1.10657239 -0.205156967
-3.745807648 1.104582548 0.9016038775
-3.757440329 1.108012795 -0.06837853044
-3.737241268 1.102765441 1.044076085
-1.339072704 0.3971596956 -0.3742523491
-3.749943733 1.112207413 0.06827381253
-1.546869993 0.4590851068 -0.3725189567
-3.716267824 1.103630662 0.2031681985
-1.844281316 0.5480522513 -0.3739856482
-3.725919724 1.107913375 0.3400816917
-3.766055584 1.119847775 -0.6222963929
-2.186151266 0.6504734159 0.2800557613
-2.848127365 0.8479813337 -0.3648768663
-2.161973476 0.6441015005 0.3572963774
-3.665955782 1.09286809 -0.3346780539
-3.725233793 1.110539556 0.7556036711
-3.718744278 1.109312534 -0.2033775449
-3.691706181 1.101948738 0.8894564509
-3.70181632 1.10566926 -0.06743609905
-3.374284506 1.00848341 0.9436542988
-1.293341756 0.3882670403 -0.3618290424
-3.701989889 1.112059474 0.06747100502
-1.504200578 0.4521402419 -0.3626210988
-3.679878473 1.106816769 0.2013887912
-1.842453837 0.5541647673 -0.3739856482
-3.670713186 1.104759693 0.335375309
-3.694031 1.112479687 -0.611033082
-2.199072838 0.6626826525 0.2820056975
-3.708007574 1.118101716 -0.4755342305
-2.174841642 0.6562087536 0.3597993255
-3.597458124 1.085450768 -0.3287514448
-3.672468424 1.108783722 0.7456815839
-3.684258699 1.113045096 -0.2017027885
-3.65239501 1.104113579 0.8809083104
-3.667309523 1.109321594 -0.06687762588
-3.306028366 1.000667691 0.9255369306
-1.321551681 0.4017696083 -0.3701112568
-3.654083729 1.111588597 0.06666819006
-1.528713226 0.4653328657 -0.3689197302
-3.647332907 1.110926986 0.1998187006
-3.688528538 1.123474598 -0.7494977713
-3.642058849 1.110014319 0.3331092596
-3.690125227 1.125367522 -0.611033082
-2.179657936 0.6651408076 0.2798120379
-2.178205013 0.665528059 0.36073789
-3.515524387 1.074132204 -0.3216046691
-3.627270937 1.108968258 0.7372859716
-3.638333797 1.113044024 -0.1994000077
-3.628021717 1.110581756 0.875959456
-3.634734631 1.113331437 -0.06635405123
-3.291432858 1.00880444 0.9224311113
-1.349682689 0.4154744148 -0.3783934414
-3.619603634 1.11491847 0.06610971689
-1.527079582 0.4706659615 -0.3689197302
-3.603353739 1.111290336 0.1976206005
-1.857300758 0.5727998614 -0.3778018355
-3.607701302 1.113320708 0.3303202689
-3.686174631 1.138241768 -0.611033082
-2.173529625 0.6715727448 0.2793245614
-3.512356281 1.085912108 -0.4514040947
-2.179642677 0.6742955446 0.3613636792
-3.363288879 1.04046905 -0.3080084026
-3.587744713 1.110591888 0.7300352454
-3.596269846 1.113918662 -0.1973065734
-3.586894751 1.111701965 0.86696136
-3.605997086 1.118311286 -0.06590028852
-3.300806761 1.024295449 0.9260545373
-1.348224163 0.4201832116 -0.3783934414
-3.588963747 1.119212031 0.06562104821
-1.510545015 0.4713501334 -0.3653205037
-3.555603027 1.110170603 0.1952131391
-1.851541877 0.578109324 -0.3770385981
-3.565758228 1.114024401 0.326834023
-3.633158207 1.135777593 -0.6028984785
-2.180645227 0.6821188927 0.2805432379
-3.224374771 1.009221554 -0.4148432612
-2.181046009 0.6830801368 0.3619894087
-3.3235116 1.040887952 -0.3046964705
-3.559491634 1.115476608 0.7250742316
-3.567584753 1.11869657 -0.1959458441
-3.52535224 1.106129527 0.8530144095
-3.565821648 1.119511008 -0.06523709744
-3.289839029 1.033496261 0.9239840508
-1.346749187 0.4248868525 -0.3783934414
-3.552617073 1.121498585 0.06502766162
-1.523756504 0.4813158512 -0.3689197302
-3.525044441 1.114148498 0.1937477291
-1.785865426 0.5644522309 -0.3640635908
-3.539051771 1.119254947 0.3247422874
-3.583971977 1.134149432 -0.5953896642
-2.183928251 0.6915243864 0.2812744677
-3.220832348 1.020470738 -0.4148432612
-2.182414293 0.6918832064 0.3626151383
-3.306563377 1.048268318 -0.303476274
-3.525634289 1.118396759 0.7189683318
-3.529392004 1.120266676 -0.1940617412
-3.497324705 1.110760212 0.8471657038
-3.516153574 1.117415905 -0.06439937651
-3.277006626 1.042045712 0.9213958383
-1.275326729 0.4072536528 -0.3587231934
-3.502965212 1.119286299 0.06418995559
-1.536916494 0.4913794696 -0.3725189567
-3.488795519 1.116100073 0.1919683069
-3.51167202 1.12341845 -0.7166786194
-3.487684727 1.116416693 0.3203845024
-3.523554087 1.128576636 -0.5860036016
-2.190953255 0.702172339 0.2824931443
-3.24182415 1.039587617 -0.418011874
-2.193152189 0.7037218213 0.3648051918
-3.280118942 1.052499294 -0.3013845682
-3.4824543 1.11809361 0.7109543085
-3.496936798 1.123416662 -0.1924916655
-3.460031748 1.112226725 0.8390674591
-3.476062298 1.118049145 -0.06373618543
-3.278866053 1.055253983 0.9229487777
-1.347426772 0.4354664683 -0.3794287443
-3.459080458 1.118586302 0.06345695257
-1.520359278 0.4919415712 -0.3689197302
-3.458275795 1.119659543 0.1905028969
-3.530142307 1.142927289 -0.7212580442
-3.457230806 1.119987965 0.3179441392
-3.482010841 1.12868607 -0.5797461867
-2.192265272 0.7110412717 0.2829806209
-3.241951942 1.05212307 -0.4184993804
-2.200076818 0.71442312 0.3663695455
-3.280215025 1.065172672 -0.301733166
-3.439319611 1.11750257 0.7029404044
-3.453106642 1.122648478 -0.1902935505
-3.422771692 1.113445997 0.8309692144
-3.447418928 1.122130156 -0.06328242272
-3.275162458 1.066692948 0.9229487777
-1.349570632 0.4413685799 -0.3804639876
-3.42284584 1.120080471 0.06286356598
-1.51863265 0.4972456694 -0.3689197302
-3.420182467 1.120531559 0.1886187941
-1.828364372 0.5990148187 -0.3739856482
-3.423008442 1.122118115 0.3151551485
-3.451772213 1.132214546 -0.5753660202
-2.174680948 0.7137372494 0.2810307145
-3.22505784 1.059097052 -0.4167931676
-3.404262304 1.11860621 0.5675443411
-3.280262232 1.077861071 -0.3020817935
-3.403692007 1.119077086 0.6964528561
-3.413119793 1.122835875 -0.1883047968
-3.387396097 1.115029454 0.8233208656
-3.420689106 1.126650333 -0.06286356598
-3.282427788 1.081746221 0.9260545373
-1.340685606 0.4436488152 -0.3783934414
-3.396135092 1.124479055 0.06244470924
-1.468791127 0.4866097271 -0.357222259
-3.376438618 1.119265437 0.186420694
-1.826262236 0.6053929925 -0.3739856482
-3.388813257 1.124023914 0.3123661578
-3.402802706 1.129324198 -0.5678571463
-2.183480024 0.7250771523 0.2824931443
-3.185548544 1.058455467 -0.4121621549
-3.372219324 1.12113452 0.5628513098
-3.301058054 1.097476125 -0.3043478429
-3.366233587 1.119796157 0.6895837188
-3.388333797 1.127804756 -0.187153399
-3.352051973 1.116379142 0.8156725168
-3.384484291 1.127835751 -0.06227018684
-3.289627552 1.0968647 0.9291604161
-1.339128852 0.4483260214 -0.3783934414
-3.365643024 1.127434611 0.06195604429
-1.515124321 0.5078356266 -0.3689197302
-3.342213392 1.120883584 0.1847459525
-1.805524349 0.6055216789 -0.3701694608
-3.354646921 1.125705719 0.3095771968
-2.234058619 0.7501075864 -0.3732526898
-2.188462973 0.7352233529 0.2834681273
-2.940985918 0.9886085391 -0.3809635937
-3.332711458 1.120933175 0.5569067597
-3.28965354 1.106451035 -0.3036506176
-3.347418547 1.12653017 0.6865308285
-3.361662388 1.131977677 -0.1858973354
-3.320433855 1.118739247 0.8089240193
-3.319889545 1.119201064 -0.06115323305
-3.280287027 1.106488705 0.9276074767
-1.319258213 0.446800828 -0.3732170761
-3.325702906 1.126982093 0.06129284948
-1.513342381 0.5131213069 -0.3689197302
-3.313692331 1.124201655 0.1833852082
-1.766216159 0.5992056727 -0.3625371158
-3.312963963 1.124599457 0.306090951
-2.208981514 0.7502779365 -0.3694982827
-2.185883284 0.7428580523 0.2834681273
-2.866099596 0.9745832682 -0.3717015386
-3.310077429 1.1261971 0.5537780523
-3.259364367 1.108942866 -0.3012102246
-3.310012341 1.126820445 0.6796616912
-3.323660135 1.13211298 -0.1840132475
-3.292529345 1.122150421 0.803075254
-3.295142889 1.123683929 -0.06076927856
-3.269091368 1.115437031 0.9255369306
-1.321345806 0.452655077 -0.3742523491
-3.291482449 1.128209829 0.06073437631
-1.511541963 0.5184007883 -0.3689197302
-3.281411171 1.126037955 0.1818151325
-1.834678292 0.6295819879 -0.3770385981
-3.286405325 1.128392935 0.3039992154
-2.251185894 0.7733877301 -0.377007097
-2.179522038 0.7491930723 0.2829806209
-2.870188713 0.9871643186 -0.3726764917
-3.274372339 1.126817226 0.5484592915
-3.253589392 1.119665265 -0.3010359406
-3.270789146 1.126223445 0.672410965
-3.287586451 1.13264811 -0.1822338104
-3.259114742 1.123475313 0.795876801
-3.283638954 1.13257134 -0.06062966213
-3.243264198 1.119278193 0.9193252921
-1.224837184 0.4243773222 -0.3473351598
-3.25729394 1.129212618 0.06017589942
-1.483947635 0.5147328377 -0.3626210988
-3.247271061 1.127007723 0.1801403761
-1.817631721 0.6308327913 -0.3739856482
-3.257978678 1.131361127 0.301733166
-2.222349405 0.7721639872 -0.3726269603
-2.167518139 0.7535372376 0.2817619443
-2.885474443 1.003698945 -0.3751138747
-3.25176239 1.131747723 0.545330584
-3.236489296 1.126432061 -0.2998157442
-3.233465195 1.126011372 0.6655418277
-3.244005442 1.130316734 -0.1800356954
-3.225731134 1.124581575 0.7886784077
-3.247567654 1.132829189 -0.06003627554
-3.241161108 1.131229043 0.9198428988
-1.343677759 0.4708126187 -0.3814992905
-3.234461784 1.133959293 0.05982685089
-1.507886052 0.5289406776 -0.3689197302
-3.213163853 1.1277529 0.1784656197
-3.264048338 1.145612359 -0.672410965
-3.227692127 1.133483887 0.2992928326
-2.245731831 0.7890851498 -0.377007097
-2.163002253 0.7604404688 0.2815182209
-2.896934271 1.019034266 -0.377063781
-3.214252234 1.131286144 0.5396989584
-3.21186471 1.130445838 -0.2978983223
-3.210997343 1.130770326 0.6617256403
-3.213668108 1.13234055 -0.1785703003
-3.185028553 1.122875094 0.7796803117
-3.194562435 1.126863122 -0.05912875384
-3.204401493 1.130963564 0.9105254412
-1.320175052 0.4677575529 -0.3752876222
-3.204096794 1.135888457 0.05933818221
-1.50603044 0.534201026 -0.3689197302
-3.186621189 1.130945325 0.177209571
-3.200824022 1.13598597 -0.6601991653
-3.182410002 1.130076885 0.2954579592
-2.242963791 0.7969194651 -0.377007097
-2.177168369 0.7739699483 0.2837118506
-2.867175102 1.019827485 -0.3736514449
-3.171202183 1.128590584 0.5331287384
-3.17786622 1.130962253 -0.2951093316
-3.181137562 1.132751107 0.656382978
-3.205932856 1.142211676 -0.1783609539
-3.155391216 1.124825358 0.7733817101
-3.168007612 1.129945874 -0.05870989338
-3.15858674 1.127207279 0.898619771
-1.329446197 0.4762721956 -0.3783934414
-3.158699036 1.132222414 0.05857027695
-1.518831491 0.5447174907 -0.3725189567
-3.158215761 1.133292437 0.1758488268
-3.163577318 1.135216355 -0.6533300281
-3.139066458 1.127040267 0.2917973995
-2.240168571 0.804743588 -0.377007097
-2.198738575 0.7902938724 0.2868804634
-2.886013508 1.037890911 -0.3765763044
-3.143080235 1.130958796 0.5290614367
-3.15327692 1.134627819 -0.2931919098
-3.149456024 1.13387394 0.6506586671
-3.175619125 1.143919349 -0.1768955439
-3.138612509 1.131207705 0.770232439
-3.137708426 1.131500602 -0.05822122842
-3.111020565 1.122490168 0.8861964941
-1.331408381 0.4822257757 -0.3794287443
-3.13028717 1.134383678 0.05811651424
-1.5022645 0.5447016954 -0.3689197302
-3.129832268 1.135455728 0.1744880974
-3.133757114 1.136879683 -0.6479873657
-3.123877048 1.133911371 0.2907515466
-2.211351395 0.8031178117 -0.3726269603
-2.190369129 0.7959307432 0.2861492336
-2.897297859 1.053385139 -0.3785262108
-3.113124371 1.132468581 0.5246812701
-3.121212244 1.135410666 -0.2905772328
-3.108581781 1.131431341 0.6430263519
-3.122812748 1.137228251 -0.1741740704
-3.114504337 1.134817362 0.7652834654
-3.111194849 1.134227395 -0.05780237168
-3.090749264 1.127384901 0.8815376759
-1.311576247 0.4802281857 -0.3742523491
-3.109409332 1.139112711 0.05780237168
-1.500354052 0.5499423742 -0.3689197302
-3.092097521 1.133994937 0.1726039946
-3.137142658 1.150514841 -0.6495138407
-3.097454309 1.136572838 0.288659811
-2.2604568 0.8298944831 -0.3813872933
-3.072670698 1.128696561 0.4019251168
-2.863791466 1.052534819 -0.3746263981
-3.098027945 1.139238596 0.5228040814
-3.106009722 1.142173767 -0.2895313799
-3.084345818 1.134818435 0.638828516
-3.088835716 1.137081742 -0.1724993289
-3.077608109 1.133559227 0.7571852803
-3.084700584 1.136783004 -0.05738351122
-3.074107409 1.133487821 0.8779142499
-1.306268454 0.4834624529 -0.3732170761
-3.075410128 1.138849139 0.05724389479
-1.472842216 0.5456979871 -0.3626210988
-3.054411173 1.132285476 0.1707199067
-1.804021835 0.6687598825 -0.3739856482
-3.072919607 1.13975668 0.2867423892
-2.231618404 0.8281587362 -0.377007097
-3.064990282 1.138032794 0.4014376402
-2.871265173 1.066672802 -0.3760888278
-3.055148602 1.135592937 0.5162338018
-3.088930845 1.148149729 -0.2883111835
-3.058284521 1.137365222 0.6342491508
-3.062385082 1.139498591 -0.1712432653
-3.033454418 1.129337192 0.7472874522
-3.050730944 1.136374593 -0.05682503432
-3.053839684 1.138140321 0.8732554913
-1.27200377 0.4758357108 -0.3638995886
-3.050815344 1.141866088 0.05685994029
-1.45632863 0.5453681946 -0.3590218723
-3.024256229 1.133129954 0.1692544967
-3.092265129 1.158611536 -0.6418814659
-3.035341263 1.137888312 0.2836047709
-2.202820063 0.8262307644 -0.3726269603
-3.036838293 1.139657736 0.3982690573
-2.82292223 1.059942603 -0.370239079
-3.028975964 1.137913465 0.5124793649
-3.034546614 1.140006185 -0.2836047709
-3.035918713 1.141126275 0.6304329634
-3.045302629 1.14526093 -0.1705105603
-3.002135277 1.129624128 0.7405388355
-3.020545244 1.137153029 -0.05633636937
-3.013691187 1.135174036 0.8629027009
-1.317317724 0.4980352819 -0.3773581684
-3.015014648 1.140481949 0.05626656115
-1.494512796 0.5656237006 -0.3689197302
-3.010943651 1.140142679 0.1687311381
-3.047809601 1.154102564 -0.6334859133
-3.005266666 1.138593554 0.2811644077
-2.199922562 0.8339150548 -0.3726269603
-3.017992735 1.144619703 0.3963191211
-2.856324196 1.083874822 -0.3751138747
-2.997283936 1.137962461 0.5077863336
-3.011921883 1.143519998 -0.2818616629
-2.995210648 1.13777411 0.6228005886
-3.020750046 1.148078203 -0.1693591624
-2.987244844 1.135940909 0.7378394604
-2.988522291 1.137024403 -0.05581279844
-2.975406885 1.132628083 0.8530676365
-1.293915629 0.494356811 -0.3711465001
-2.98486495 1.141003013 0.05577788875
-1.467047215 0.5610907674 -0.3626210988
-2.992022276 1.144936323 0.1678937674
-1.778583884 0.680598259 -0.3701694608
-2.975224495 1.139103651 0.2787240744
-2.1305902 0.8161507249 -0.3613636792
-2.980613947 1.142360091 0.3919318318
